2.301371700000000020e-01 2.256270099999999890e-01 1.373815499999999912e-01
2.363024999999999987e-01 2.539365900000000176e-01 1.373815499999999912e-01
2.403410699999999900e-01 2.690427899999999761e-01 1.373815499999999912e-01
2.456053500000000001e-01 2.847960600000000175e-01 1.373815499999999912e-01
2.514257400000000087e-01 2.992551900000000042e-01 1.373815499999999912e-01
2.720369100000000206e-01 4.049985999999999864e-01 1.373815499999999912e-01
2.710045600000000054e-01 4.201048000000000004e-01 1.373815499999999912e-01
2.688707100000000128e-01 4.352110000000000145e-01 1.373815499999999912e-01
3.060301500000000008e-01 -2.400757099999999977e-01 1.405785099999999899e-01
6.933197000000000665e-02 -1.608669999999999892e-02 1.422606600000000110e-01
6.140666000000000180e-02 -7.793480000000000199e-03 1.427361500000000061e-01
3.019121300000000008e-01 -2.332383399999999884e-01 1.414592299999999914e-01
3.022197500000000092e-01 -2.294617899999999988e-01 1.412078099999999892e-01
4.922473000000000126e-02 -1.087139999999999895e-03 1.406417500000000098e-01
3.050372000000000083e-01 -2.241879699999999864e-01 1.411581000000000086e-01
2.997413000000000161e-02 1.412569999999999971e-02 1.405003400000000013e-01
3.094835300000000067e-01 -2.174062099999999886e-01 1.449346499999999982e-01
2.278894000000000059e-02 2.356708000000000067e-02 1.399437199999999937e-01
3.137209100000000195e-01 -2.122799200000000108e-01 1.413690099999999894e-01
3.244521000000000210e-02 2.545535999999999979e-02 1.437459299999999940e-01
3.248812600000000050e-01 -2.294207799999999908e-01 1.411581000000000086e-01
3.286894599999999889e-01 -2.219086899999999918e-01 1.403532000000000113e-01
1.039847099999999941e-01 -2.175151999999999988e-02 1.452679600000000015e-01
1.101216099999999948e-01 -1.986324999999999896e-02 1.460424200000000061e-01
1.263156099999999948e-01 -2.906235000000000068e-02 1.419143300000000052e-01
1.285322899999999935e-01 -2.175151999999999988e-02 1.439915900000000026e-01
1.398619399999999902e-01 -2.741634999999999905e-02 1.403228900000000057e-01
9.595953999999999595e-02 -1.967970000000000136e-02 1.456656299999999904e-01
1.483591800000000072e-01 -1.227713000000000068e-02 1.419703099999999885e-01
1.568564199999999964e-01 -3.376800000000000114e-03 1.408757099999999873e-01
1.662977900000000009e-01 1.979053000000000062e-02 1.413340600000000113e-01
1.678522500000000084e-01 3.206432000000000032e-02 1.415851300000000035e-01
2.451660599999999912e-01 -2.175151999999999988e-02 1.411581000000000086e-01
2.449330700000000027e-01 -1.797496999999999984e-02 1.430712299999999937e-01
2.435676499999999967e-01 -1.231015000000000061e-02 1.439905200000000107e-01
2.416845599999999927e-01 -3.269880000000000182e-03 1.411581000000000086e-01
3.270014500000000268e-01 -1.992493899999999984e-01 1.411581000000000086e-01
3.258613899999999730e-01 -1.954728400000000088e-01 1.421063499999999924e-01
3.246275800000000267e-01 -1.921443899999999982e-01 1.411581000000000086e-01
2.416515899999999994e-01 9.168980000000000186e-03 1.432117199999999868e-01
3.357883700000000027e-01 -1.992493899999999984e-01 1.411581000000000086e-01
2.380522499999999930e-01 2.146988999999999842e-02 1.411581000000000086e-01
3.173598100000000199e-01 -2.091492100000000021e-01 1.407697199999999871e-01
3.249129099999999992e-01 -1.992493899999999984e-01 1.426476200000000027e-01
-9.719699999999999521e-04 2.539365900000000176e-01 1.487111999999999878e-01
-4.879709999999999777e-03 2.614896899999999969e-01 1.449346499999999982e-01
-1.393023000000000004e-02 3.248549800000000154e-01 1.430885500000000088e-01
-5.862179999999999822e-03 2.709310699999999961e-01 1.449346499999999982e-01
-1.794810000000000155e-02 3.880041200000000079e-01 1.468930499999999972e-01
-1.356511000000000002e-02 4.762008799999999931e-01 1.426594899999999999e-01
-1.947337000000000026e-02 4.219930800000000204e-01 1.449346499999999982e-01
-7.965069999999999442e-03 4.983395999999999937e-01 1.437102000000000102e-01
-1.846263000000000071e-02 4.555174399999999957e-01 1.408657700000000013e-01
2.583842999999999904e-02 4.206817999999999669e-02 1.410255900000000062e-01
8.486080000000000012e-03 7.872619999999999618e-02 1.418685899999999889e-01
9.571019999999999528e-03 8.399183000000000343e-02 1.419590099999999966e-01
1.051514999999999915e-02 8.775866000000000222e-02 1.409038900000000039e-01
2.208790999999999879e-02 5.214854000000000017e-02 1.411078299999999897e-01
1.901239000000000054e-02 9.343319999999999403e-02 1.403936399999999862e-01
1.836151000000000102e-02 6.401515000000000677e-02 1.449346499999999982e-01
1.334756999999999957e-02 7.075020999999999394e-02 1.433492299999999942e-01
3.338088000000000166e-02 9.815388999999999364e-02 1.456523200000000018e-01
2.427429999999999866e-02 1.255338799999999866e-01 1.482737699999999992e-01
1.673320500000000099e-01 5.000293000000000099e-02 1.418722900000000120e-01
1.700743399999999905e-01 5.185918999999999945e-02 1.430463800000000008e-01
2.366785999999999890e-02 1.368635300000000110e-01 1.471516499999999950e-01
1.851805400000000046e-01 5.362013000000000196e-02 1.430463800000000008e-01
1.592617000000000060e-01 4.244983000000000090e-02 1.451969100000000124e-01
3.411858999999999725e-02 1.583231099999999891e-01 1.454563700000000015e-01
1.643812099999999998e-01 4.622637999999999747e-02 1.428794399999999964e-01
8.367420000000000413e-03 5.409544099999999966e-01 1.487111999999999878e-01
3.381925999999999682e-02 5.884458700000000375e-01 1.439786600000000083e-01
1.925947999999999896e-02 5.652886599999999984e-01 1.459195000000000075e-01
2.314700000000000091e-02 5.728824099999999531e-01 1.462751800000000046e-01
4.918726999999999822e-02 6.032747600000000210e-01 1.430463800000000008e-01
1.742614500000000122e-01 6.070440400000000070e-01 1.417963499999999877e-01
1.734782300000000110e-01 6.174295499999999937e-01 1.439454900000000093e-01
7.573024999999999896e-02 6.249826600000000232e-01 1.448906899999999887e-01
1.814039899999999872e-01 6.230943799999999477e-01 1.391814100000000054e-01
1.776274399999999976e-01 6.334798900000000454e-01 1.427832199999999885e-01
1.067418499999999992e-01 6.594969600000000209e-01 1.423396200000000000e-01
9.699563999999999409e-02 6.466360500000000178e-01 1.441468899999999997e-01
1.124371100000000068e-01 6.647237499999999466e-01 1.428189900000000068e-01
1.236134200000000016e-01 6.665932799999999547e-01 1.463324599999999975e-01
1.096495400000000037e-01 6.769102200000000069e-01 1.395060999999999940e-01
1.167855799999999999e-01 6.816309099999999788e-01 1.422331099999999959e-01
1.002296399999999948e-01 7.239408000000000509e-01 1.425530799999999987e-01
1.832922700000000071e-01 6.319440600000000297e-01 1.403716499999999867e-01
1.832175900000000135e-01 6.372676200000000346e-01 1.420512800000000020e-01
1.903732999999999953e-01 6.429212699999999892e-01 1.441114799999999863e-01
2.031499999999999972e-01 6.409416900000000084e-01 1.411155500000000063e-01
2.136142299999999883e-01 6.448095400000000144e-01 1.402142299999999953e-01
2.258792799999999878e-01 6.599157500000000232e-01 1.446168899999999979e-01
2.435411500000000118e-01 6.769102200000000069e-01 1.409933600000000120e-01
2.468476000000000004e-01 6.891840099999999580e-01 1.429408500000000082e-01
2.504378099999999829e-01 7.018461999999999756e-01 1.430463800000000008e-01
2.577961100000000227e-01 7.260053800000000335e-01 1.426417799999999958e-01
2.592353499999999755e-01 7.335584800000000127e-01 1.445437099999999919e-01
8.771700999999999804e-02 7.680194999999999661e-01 1.431820099999999985e-01
2.707794600000000274e-01 7.411115799999999920e-01 1.430931099999999956e-01
8.728044999999999554e-02 7.916229399999999972e-01 1.430463800000000008e-01
8.725860000000000560e-02 8.062125700000000172e-01 1.421923200000000109e-01
8.980926999999999660e-02 8.185308599999999712e-01 1.430463800000000008e-01
1.005339799999999950e-01 8.440323499999999868e-01 1.447088900000000067e-01
2.428069099999999869e-01 8.657377400000000334e-01 1.411581000000000086e-01
2.338547699999999896e-01 8.674187199999999764e-01 1.451327900000000115e-01
1.242717200000000022e-01 8.755264099999999772e-01 1.433105799999999930e-01
1.304205700000000134e-01 8.792581400000000214e-01 1.434158500000000114e-01
1.368742000000000014e-01 8.825458600000000153e-01 1.430463800000000008e-01
1.757391700000000001e-01 8.884884400000000459e-01 1.450174499999999922e-01
1.488312499999999983e-01 8.854385599999999856e-01 1.439905200000000107e-01
1.832922700000000071e-01 8.880007300000000159e-01 1.446493000000000084e-01
2.078398499999999927e-01 8.733822100000000477e-01 1.525784699999999938e-01
2.664339900000000094e-01 7.584299899999999983e-01 1.432535000000000058e-01
2.670880600000000160e-01 7.656591499999999550e-01 1.414690600000000076e-01
2.636115600000000225e-01 7.694356999999999447e-01 1.441793100000000050e-01
2.238901899999999889e-01 8.712496499999999866e-01 1.470363000000000087e-01
2.604549400000000237e-01 8.298739200000000427e-01 1.458815499999999987e-01
2.685087899999999972e-01 8.105056899999999453e-01 1.421022399999999908e-01
3.286894599999999889e-01 -2.162438600000000100e-01 1.389865299999999970e-01
2.090066999999999967e-02 2.923190999999999984e-02 1.394396699999999878e-01
3.286894599999999889e-01 -2.068024900000000055e-01 1.391961600000000132e-01
3.249129099999999992e-01 -2.068024900000000055e-01 1.400530299999999950e-01
3.057869100000000229e-01 -2.303777599999999870e-01 1.449346499999999982e-01
6.513355999999999313e-02 -1.979509999999999863e-03 1.456046799999999863e-01
3.064849700000000232e-01 -2.237969599999999892e-01 1.449969399999999908e-01
4.355991000000000030e-02 1.034914999999999967e-02 1.439432499999999948e-01
3.088532099999999891e-01 -2.337359200000000137e-01 1.449346499999999982e-01
5.489779999999999660e-02 2.935230000000000044e-03 1.445219699999999996e-01
3.135832499999999801e-01 -2.362947200000000136e-01 1.438990800000000125e-01
3.922218999999999706e-02 1.789539000000000060e-02 1.449398000000000075e-01
3.250489200000000189e-01 -2.294617899999999988e-01 1.449346499999999982e-01
3.285361500000000268e-01 -2.255354800000000104e-01 1.449346499999999982e-01
8.526158000000000348e-02 -1.827426000000000050e-02 1.450845299999999893e-01
7.609000999999999959e-02 -1.234998999999999993e-02 1.455207500000000043e-01
1.530798700000000068e-01 6.724049999999999645e-03 1.450305400000000133e-01
1.351226500000000108e-01 -1.017058000000000025e-02 1.458116200000000029e-01
1.587446899999999939e-01 1.979053000000000062e-02 1.450943899999999898e-01
1.599156399999999978e-01 2.923190999999999984e-02 1.452270900000000031e-01
3.215287900000000088e-01 -1.954728400000000088e-01 1.449346499999999982e-01
2.427809800000000073e-01 -2.868770000000000087e-03 1.449346499999999982e-01
3.208282000000000078e-01 -1.916962899999999914e-01 1.449346499999999982e-01
3.249129099999999992e-01 -1.934244599999999925e-01 1.453551700000000058e-01
3.254299800000000076e-01 -1.913588300000000075e-01 1.444280699999999917e-01
3.326100100000000115e-01 -1.958687299999999909e-01 1.449346499999999982e-01
3.362425600000000236e-01 -1.932340300000000011e-01 1.449346499999999982e-01
2.418288000000000104e-01 1.825956000000000107e-02 1.458131699999999920e-01
2.457293600000000078e-01 -2.700063999999999936e-02 1.447132499999999877e-01
2.381494299999999953e-01 3.001962999999999854e-02 1.500134100000000137e-01
3.128126900000000044e-01 -2.093163700000000016e-01 1.449346499999999982e-01
-1.484772999999999996e-02 3.383881699999999881e-01 1.450344899999999881e-01
1.238579999999999976e-03 5.050771800000000145e-01 1.562643099999999896e-01
3.220921000000000201e-02 3.367909999999999654e-02 1.439771400000000035e-01
3.623562000000000310e-02 3.772914000000000129e-02 1.470093700000000003e-01
3.329083000000000042e-02 4.434053000000000300e-02 1.472222900000000056e-01
1.388054000000000024e-02 7.832699999999999385e-02 1.447899500000000006e-01
2.090066999999999967e-02 7.927114000000000382e-02 1.465931799999999896e-01
2.750963000000000019e-02 8.588010000000000088e-02 1.454324100000000120e-01
1.686771000000000104e-02 7.171803999999999679e-02 1.465417999999999998e-01
3.696880999999999778e-02 8.532781999999999867e-02 1.481998300000000046e-01
2.325409999999999977e-02 1.293104300000000040e-01 1.484012600000000071e-01
2.329033999999999965e-02 1.330869799999999936e-01 1.483792700000000075e-01
3.712474999999999803e-02 1.028745799999999933e-01 1.480243499999999990e-01
3.121248999999999899e-02 1.086685099999999959e-01 1.465646200000000066e-01
1.598179499999999864e-01 5.013019999999999976e-02 1.463729699999999911e-01
3.693240999999999885e-02 1.481931800000000077e-01 1.457749899999999932e-01
1.776274399999999976e-01 5.377769000000000299e-02 1.449458600000000097e-01
1.512377299999999869e-01 3.867327999999999738e-02 1.487318300000000093e-01
1.927336500000000064e-01 5.360489999999999700e-02 1.449346499999999982e-01
2.370523000000000075e-02 1.851619899999999985e-01 1.508557899999999896e-01
7.355470000000000237e-03 2.067297100000000110e-01 1.460704200000000064e-01
2.598171999999999982e-02 5.768316399999999788e-01 1.468229299999999904e-01
3.186057999999999946e-02 5.801361200000000329e-01 1.509711099999999917e-01
1.729354300000000011e-01 5.883973200000000014e-01 1.458787900000000082e-01
1.711245200000000022e-01 5.976026700000000025e-01 1.477670700000000004e-01
7.270479000000000525e-02 6.202619700000000513e-01 1.468229299999999904e-01
1.739640500000000090e-01 6.331614899999999935e-01 1.450135399999999963e-01
9.150803000000000409e-02 6.320636899999999558e-01 1.509757300000000024e-01
1.041917700000000030e-01 6.487210700000000108e-01 1.459746100000000046e-01
1.172007600000000010e-01 6.533338400000000545e-01 1.476699599999999890e-01
1.258185400000000065e-01 6.844633199999999862e-01 1.467106999999999994e-01
1.209791900000000003e-01 7.033460700000000454e-01 1.471388299999999982e-01
1.166565499999999977e-01 7.090881500000000282e-01 1.463014900000000063e-01
1.317840700000000032e-01 6.731336700000000173e-01 1.488535800000000131e-01
1.741030500000000092e-01 6.410329900000000247e-01 1.456536700000000129e-01
1.772459100000000065e-01 6.430357700000000065e-01 1.448891200000000101e-01
9.680911999999999851e-02 7.417004999999999848e-01 1.467259800000000058e-01
9.364211999999999536e-02 7.514970899999999787e-01 1.465945200000000059e-01
1.004475499999999966e-01 7.314833699999999661e-01 1.461567699999999914e-01
2.033455399999999913e-01 6.485754700000000428e-01 1.446697999999999873e-01
2.135046700000000075e-01 6.600854999999999917e-01 1.496841499999999880e-01
2.201136399999999993e-01 6.599157500000000232e-01 1.472800700000000129e-01
2.323716899999999919e-01 6.674911999999999512e-01 1.451104300000000125e-01
2.397163800000000067e-01 6.776743699999999704e-01 1.445752999999999899e-01
2.532871999999999901e-01 7.212917199999999696e-01 1.450512100000000137e-01
2.630087999999999870e-01 7.411115799999999920e-01 1.482787100000000080e-01
2.695902900000000102e-01 7.448881299999999817e-01 1.450460600000000044e-01
2.644881000000000038e-01 7.475957300000000139e-01 1.487111999999999878e-01
9.248070999999999375e-02 7.582710099999999676e-01 1.468877199999999994e-01
9.275513999999999981e-02 7.996481100000000231e-01 1.487111999999999878e-01
9.417414999999999814e-02 8.279722299999999757e-01 1.449346499999999982e-01
1.080901600000000046e-01 8.544080899999999534e-01 1.466541600000000056e-01
1.129220799999999941e-01 8.591911899999999935e-01 1.478399300000000083e-01
1.159023200000000031e-01 8.672409699999999999e-01 1.444353499999999901e-01
1.918374800000000047e-01 8.833441100000000157e-01 1.480055200000000015e-01
1.634653799999999935e-01 8.864418099999999967e-01 1.469521099999999969e-01
2.657481300000000268e-01 7.920950100000000438e-01 1.467752200000000118e-01
2.674104600000000165e-01 7.996481100000000231e-01 1.449346499999999982e-01
2.492165899999999878e-01 8.528797900000000265e-01 1.446310000000000096e-01
2.553446300000000169e-01 8.241956799999999861e-01 1.524877500000000052e-01
2.342757000000000034e-01 3.295416999999999791e-02 1.465055000000000107e-01
2.304991500000000137e-01 3.635278000000000120e-02 1.439718000000000109e-01
1.755133899999999914e-01 5.787199100000000040e-01 1.449346499999999982e-01
3.203395600000000232e-01 -1.992493899999999984e-01 1.449346499999999982e-01
3.324660099999999785e-01 -1.992493899999999984e-01 1.431138499999999869e-01
3.211363600000000096e-01 -2.326147600000000037e-01 1.449346499999999982e-01
3.307646499999999934e-01 -2.219086899999999918e-01 1.449346499999999982e-01
3.324704199999999887e-01 -2.143555900000000125e-01 1.449346499999999982e-01
2.380522499999999930e-01 -3.378104999999999997e-02 1.439946300000000123e-01
2.328584200000000104e-01 -3.308117000000000002e-02 1.449346499999999982e-01
2.416998099999999872e-01 -3.308117000000000002e-02 1.449346499999999982e-01
2.304991500000000137e-01 -3.096138999999999836e-02 1.449346499999999982e-01
3.495120999999999922e-01 -1.690369800000000033e-01 1.449346499999999982e-01
3.508675099999999936e-01 -1.614838799999999963e-01 1.449346499999999982e-01
2.183530899999999997e-01 -1.042186999999999975e-02 1.487111999999999878e-01
3.513162699999999861e-01 -1.539307799999999893e-01 1.448543700000000101e-01
2.159894699999999890e-01 -2.868770000000000087e-03 1.449346499999999982e-01
2.141890499999999919e-01 8.460880000000000484e-03 1.449346499999999982e-01
2.909239499999999867e-01 -1.269245699999999866e-01 1.449346499999999982e-01
2.123754599999999881e-01 2.356708000000000067e-02 1.449346499999999982e-01
3.326122799999999824e-01 -2.068024900000000055e-01 1.449346499999999982e-01
2.897375799999999946e-01 -1.237183800000000028e-01 1.524877500000000052e-01
2.984770500000000215e-01 -1.312714799999999959e-01 1.453318600000000071e-01
3.146801900000000263e-01 -1.784783600000000026e-01 1.477432300000000032e-01
2.833708500000000075e-01 -1.200149100000000024e-01 1.449346499999999982e-01
2.809988299999999772e-01 -1.161652799999999958e-01 1.449346499999999982e-01
3.440251899999999807e-01 -1.845644399999999963e-01 1.449346499999999982e-01
2.791646700000000036e-01 -1.086121800000000026e-01 1.449346499999999982e-01
2.803839399999999982e-01 -1.010590799999999956e-01 1.449346499999999982e-01
3.132940799999999748e-01 -1.641956900000000052e-01 1.443564300000000078e-01
2.847176200000000046e-01 -9.496440999999999910e-02 1.449346499999999982e-01
3.108745800000000115e-01 -1.539307799999999893e-01 1.449346499999999982e-01
3.091362699999999908e-01 -1.463776800000000100e-01 1.449346499999999982e-01
3.476553000000000004e-01 -1.765900900000000051e-01 1.449346499999999982e-01
3.199452799999999986e-01 -9.452259999999999829e-02 1.449346499999999982e-01
3.274661899999999903e-01 -1.026514800000000033e-01 1.449346499999999982e-01
3.135832499999999801e-01 -9.042948000000000652e-02 1.449346499999999982e-01
2.112351699999999999e-01 3.489673000000000080e-02 1.449346499999999982e-01
2.113286299999999895e-01 4.244983000000000090e-02 1.449346499999999982e-01
2.002867500000000134e-01 5.458771999999999930e-02 1.449346499999999982e-01
2.153929499999999997e-01 4.734682999999999947e-02 1.449346499999999982e-01
2.018919000000000130e-01 5.755603000000000108e-02 1.449346499999999982e-01
2.278158700000000036e-01 4.244983000000000090e-02 1.449346499999999982e-01
2.608829699999999918e-01 3.220086699999999968e-01 1.493407800000000063e-01
2.229460500000000067e-01 4.682291000000000231e-02 1.449346499999999982e-01
2.630969300000000066e-01 3.294675899999999769e-01 1.524877500000000052e-01
2.031121300000000018e-01 7.266216999999999815e-02 1.449346499999999982e-01
2.638138500000000164e-01 3.445737999999999857e-01 1.449346499999999982e-01
2.686200699999999886e-01 3.810017099999999934e-01 1.449346499999999982e-01
1.806381900000000040e-01 5.711668100000000248e-01 1.449346499999999982e-01
2.446271200000000035e-01 5.323871399999999809e-01 1.449346499999999982e-01
2.706679100000000116e-01 3.898923999999999723e-01 1.449346499999999982e-01
2.380522499999999930e-01 5.409544099999999966e-01 1.492728000000000110e-01
2.040633000000000030e-01 5.559840200000000232e-01 1.449346499999999982e-01
2.229460500000000067e-01 5.476356100000000504e-01 1.449346499999999982e-01
2.613344200000000117e-01 4.668746599999999969e-01 1.449346499999999982e-01
2.588647600000000271e-01 4.729765100000000166e-01 1.449346499999999982e-01
2.563190499999999927e-01 4.805296099999999959e-01 1.449346499999999982e-01
2.560515400000000219e-01 4.880827099999999752e-01 1.449346499999999982e-01
2.304991500000000137e-01 5.440046200000000498e-01 1.449346499999999982e-01
2.555484800000000223e-01 5.031889099999999893e-01 1.449346499999999982e-01
2.547107900000000202e-01 5.107420099999999685e-01 1.449346499999999982e-01
1.776274399999999976e-01 5.748674299999999571e-01 1.449346499999999982e-01
2.529895300000000180e-01 5.176968600000000365e-01 1.449346499999999982e-01
2.500981099999999846e-01 5.258482100000000381e-01 1.449346499999999982e-01
3.437956600000000029e-01 -1.916962899999999914e-01 1.404193599999999931e-01
2.153929499999999997e-01 4.244983000000000090e-02 1.413763799999999959e-01
2.002867500000000134e-01 5.000293000000000099e-02 1.415368300000000024e-01
6.479276999999999953e-02 1.036043000000000033e-02 1.488854000000000011e-01
3.102148800000000262e-01 -2.292239799999999939e-01 1.485963800000000001e-01
3.087329899999999849e-01 -2.256852400000000092e-01 1.487111999999999878e-01
5.037871000000000016e-02 2.447213000000000166e-02 1.520092200000000005e-01
3.098066999999999904e-01 -2.203477799999999931e-01 1.488778900000000127e-01
4.544817999999999775e-02 2.356708000000000067e-02 1.493355000000000099e-01
3.993802999999999936e-02 2.897995999999999905e-02 1.477405300000000088e-01
3.110852199999999956e-01 -2.124673099999999926e-01 1.487111999999999878e-01
5.300127999999999784e-02 1.609808000000000072e-02 1.486667399999999917e-01
1.063183500000000059e-01 -2.868770000000000087e-03 1.490604899999999899e-01
9.946512999999999882e-02 9.077799999999999585e-04 1.491647700000000021e-01
9.643161000000000094e-02 -1.419841999999999979e-02 1.477005500000000138e-01
1.280602200000000024e-01 -5.686740000000000024e-03 1.482533400000000112e-01
1.176747100000000018e-01 -4.554289999999999901e-03 1.493056700000000014e-01
1.341802199999999889e-01 7.559680000000000046e-03 1.508308899999999952e-01
1.417502200000000101e-01 4.684329999999999571e-03 1.483942900000000120e-01
8.602542000000000522e-02 4.684329999999999571e-03 1.490185300000000101e-01
1.493033199999999894e-01 1.412569999999999971e-02 1.479744899999999863e-01
1.473591499999999943e-01 2.167880999999999975e-02 1.496472799999999936e-01
3.332651899999999889e-01 -1.954728400000000088e-01 1.487111999999999878e-01
1.436384900000000076e-01 3.489673000000000080e-02 1.514476499999999892e-01
3.360897600000000152e-01 -1.902926299999999904e-01 1.505994800000000078e-01
2.462627900000000092e-01 -7.425430000000000225e-03 1.505994800000000078e-01
2.441164600000000073e-01 1.851919999999999955e-03 1.487111999999999878e-01
2.426032999999999940e-01 1.979053000000000062e-02 1.487111999999999878e-01
2.419009799999999877e-01 2.543478000000000058e-02 1.505994800000000078e-01
3.135832499999999801e-01 -2.068024900000000055e-01 1.475901599999999980e-01
-2.445639999999999793e-03 2.844595300000000160e-01 1.505842699999999923e-01
-6.141719999999999818e-03 3.068082899999999835e-01 1.496419599999999905e-01
-1.145750000000000067e-02 3.610810600000000092e-01 1.524877500000000052e-01
-1.164745000000000016e-02 3.464620700000000109e-01 1.504926500000000056e-01
-1.516998999999999952e-02 4.191606600000000182e-01 1.505994800000000078e-01
-1.079252999999999983e-02 4.452960000000000251e-01 1.539185600000000098e-01
-2.117760000000000215e-03 4.748647799999999863e-01 1.609303300000000103e-01
3.376082999999999862e-02 5.323195000000000010e-02 1.530008300000000043e-01
2.278894000000000059e-02 6.404643999999999615e-02 1.490281199999999862e-01
2.058865000000000001e-02 7.455045000000000421e-02 1.479863800000000007e-01
2.174672000000000063e-02 6.888561999999999463e-02 1.491467399999999999e-01
2.933724000000000054e-02 7.361581999999999848e-02 1.495298100000000130e-01
3.411858999999999725e-02 8.021527999999999992e-02 1.483818299999999923e-01
3.034204000000000068e-02 1.255338799999999866e-01 1.517514000000000085e-01
4.065639000000000058e-02 8.965665000000000440e-02 1.488755200000000112e-01
4.654468999999999967e-02 1.024308399999999952e-01 1.518303799999999870e-01
3.914470999999999923e-02 1.402687999999999990e-01 1.536124899999999904e-01
1.502474500000000046e-01 4.622637999999999747e-02 1.504953199999999880e-01
1.559199699999999911e-01 5.346863999999999784e-02 1.524877500000000052e-01
1.650281799999999965e-01 5.377947999999999756e-02 1.495732700000000082e-01
1.776274399999999976e-01 5.659287999999999819e-02 1.487111999999999878e-01
1.832922700000000071e-01 5.639999999999999875e-02 1.487111999999999878e-01
2.313340899999999922e-01 4.311395999999999978e-02 1.517862399999999889e-01
2.304991500000000137e-01 4.244983000000000090e-02 1.485460999999999865e-01
3.216473999999999722e-02 1.791259400000000113e-01 1.540544000000000080e-01
1.380113999999999994e-02 2.020090200000000114e-01 1.507223799999999891e-01
4.261576999999999726e-02 1.557462799999999870e-01 1.497011500000000050e-01
4.733645999999999687e-02 1.519697299999999973e-01 1.518966599999999889e-01
8.746359999999999899e-03 2.218359099999999973e-01 1.524877500000000052e-01
4.022831000000000323e-02 5.816183499999999507e-01 1.587118899999999944e-01
5.488955999999999696e-02 5.902576099999999881e-01 1.621779799999999994e-01
5.721740000000000159e-02 6.004225399999999491e-01 1.538911199999999924e-01
1.721012000000000097e-01 5.824964599999999937e-01 1.505994800000000078e-01
1.693970300000000040e-01 6.183736899999999759e-01 1.484508200000000111e-01
8.845693000000000306e-02 6.281697800000000109e-01 1.518035500000000093e-01
1.069768999999999998e-01 6.415680799999999850e-01 1.506882300000000063e-01
1.106343399999999977e-01 6.485860900000000040e-01 1.479572799999999966e-01
1.172026399999999968e-01 7.165639999999999787e-01 1.498675299999999988e-01
1.238115999999999939e-01 6.563664999999999639e-01 1.486379800000000029e-01
1.077612599999999976e-01 7.283465300000000475e-01 1.500770200000000054e-01
9.820035000000000569e-02 7.505529499999999965e-01 1.507190499999999933e-01
1.703372599999999903e-01 6.485860900000000040e-01 1.494170999999999971e-01
1.738508900000000079e-01 6.485006800000000515e-01 1.479427799999999960e-01
1.943726799999999921e-01 6.557739299999999494e-01 1.501868299999999934e-01
1.334114399999999923e-01 6.881156299999999781e-01 1.507336800000000088e-01
2.360825199999999902e-01 6.867303599999999841e-01 1.504343499999999945e-01
2.229465499999999933e-01 6.693571200000000276e-01 1.507134599999999935e-01
2.397723900000000019e-01 6.931970699999999708e-01 1.500953700000000057e-01
2.304121299999999928e-01 6.773803099999999855e-01 1.502006800000000031e-01
2.454434000000000060e-01 7.046527299999999494e-01 1.485729500000000092e-01
9.392320999999999309e-02 7.675474300000000305e-01 1.492631399999999886e-01
2.503505899999999840e-01 7.260053800000000335e-01 1.487111999999999878e-01
2.499313800000000085e-01 7.346410500000000177e-01 1.509902800000000045e-01
2.520906800000000114e-01 7.373350300000000024e-01 1.507417299999999905e-01
2.618155799999999922e-01 7.445513000000000270e-01 1.503957999999999962e-01
9.339653000000000538e-02 8.081453400000000453e-01 1.487940000000000096e-01
2.559731599999999774e-01 7.582774899999999985e-01 1.504963199999999890e-01
9.671797000000000033e-02 8.185308599999999712e-01 1.503585400000000127e-01
1.004199399999999992e-01 8.317487799999999654e-01 1.498502499999999904e-01
1.042764199999999947e-01 8.393018799999999446e-01 1.503484800000000066e-01
2.193207899999999877e-01 8.677002600000000010e-01 1.528525900000000104e-01
2.325106700000000026e-01 8.622262000000000537e-01 1.506354699999999935e-01
1.266851999999999978e-01 8.715201599999999882e-01 1.488269999999999871e-01
1.208873800000000026e-01 8.639947700000000230e-01 1.506841299999999995e-01
1.349800499999999903e-01 8.752664900000000081e-01 1.501483899999999927e-01
1.497331600000000040e-01 8.804868200000000034e-01 1.505994800000000078e-01
1.549681400000000042e-01 8.835619099999999504e-01 1.487111999999999878e-01
2.548528899999999986e-01 7.637708800000000409e-01 1.504475200000000013e-01
2.620303299999999780e-01 7.817094900000000068e-01 1.488953799999999938e-01
1.998146799999999945e-01 8.747313300000000291e-01 1.542523100000000036e-01
2.640674100000000024e-01 8.015363800000000483e-01 1.482991600000000132e-01
2.503190000000000137e-01 8.374136100000000305e-01 1.524877500000000052e-01
5.536163000000000195e-02 9.405020000000000047e-03 1.466236999999999957e-01
8.746231000000000144e-02 -9.477730000000000182e-03 1.478705600000000120e-01
7.377230999999999372e-02 -4.757049999999999647e-03 1.467471899999999996e-01
1.153143600000000046e-01 -1.419841999999999979e-02 1.474580199999999952e-01
8.887850999999999391e-02 -1.419841999999999979e-02 1.471608299999999925e-01
7.471645000000000369e-02 2.796050000000000011e-03 1.478189799999999887e-01
2.792395100000000241e-01 -2.489437800000000034e-01 1.521604099999999959e-01
2.833708500000000075e-01 -2.492339000000000082e-01 1.514739400000000014e-01
6.590021000000000073e-02 2.213261000000000048e-02 1.560880199999999940e-01
2.770406000000000257e-01 -2.445679900000000129e-01 1.524877500000000052e-01
2.856216400000000100e-01 -2.483445400000000025e-01 1.524877500000000052e-01
2.871593800000000196e-01 -2.445679900000000129e-01 1.524717800000000012e-01
2.789634500000000017e-01 -2.399917500000000037e-01 1.524877500000000052e-01
8.132541000000000075e-02 8.460880000000000484e-03 1.501660900000000021e-01
1.002081600000000045e-01 1.611591000000000065e-02 1.562129600000000118e-01
2.833708500000000075e-01 -2.373204200000000041e-01 1.524877500000000052e-01
2.876993999999999940e-01 -2.407914399999999955e-01 1.520501999999999965e-01
7.342187000000000019e-02 1.993999999999999939e-02 1.562245800000000018e-01
2.871473999999999971e-01 -2.375654299999999941e-01 1.528279200000000060e-01
3.135832499999999801e-01 -2.235875099999999893e-01 1.524877500000000052e-01
3.134951000000000265e-01 -2.171879999999999922e-01 1.542801099999999981e-01
3.154715300000000000e-01 -2.275735100000000066e-01 1.514545099999999866e-01
1.081119299999999950e-01 6.400969999999999750e-03 1.517727799999999960e-01
3.211363600000000096e-01 -2.260070700000000044e-01 1.528322699999999923e-01
3.119496700000000122e-01 -2.162438600000000100e-01 1.524877500000000052e-01
1.172026399999999968e-01 5.433989999999999654e-03 1.517919299999999916e-01
1.185457099999999986e-01 1.231714000000000073e-02 1.541301800000000055e-01
1.228674700000000064e-01 1.979053000000000062e-02 1.556706999999999952e-01
3.342372200000000015e-01 -1.954728400000000088e-01 1.524877500000000052e-01
1.365574599999999916e-01 1.790225999999999970e-02 1.523930400000000074e-01
3.348137099999999866e-01 -1.916962899999999914e-01 1.524877500000000052e-01
1.356133200000000094e-01 2.356708000000000067e-02 1.532869000000000037e-01
2.455887800000000065e-01 1.601398000000000058e-02 1.524877500000000052e-01
2.459627400000000130e-01 9.077799999999999585e-04 1.524877500000000052e-01
2.456336600000000037e-01 2.167880999999999975e-02 1.543760299999999974e-01
3.120269800000000093e-01 -2.105790399999999951e-01 1.524877500000000052e-01
3.382889999999999942e-03 2.467387900000000134e-01 1.524877500000000052e-01
1.208480000000000058e-03 2.605455500000000146e-01 1.524877500000000052e-01
2.356410000000000188e-03 2.784107599999999794e-01 1.553481399999999957e-01
2.048470000000000152e-03 3.230514700000000072e-01 1.618621299999999930e-01
-1.235628000000000073e-02 3.908365400000000101e-01 1.535820099999999910e-01
-1.039996999999999970e-02 4.168003200000000019e-01 1.560363800000000023e-01
-5.812860000000000422e-03 4.622405499999999723e-01 1.581358800000000064e-01
-2.700769999999999907e-03 4.847381499999999788e-01 1.572579000000000060e-01
3.042210999999999874e-02 5.795821999999999780e-02 1.524296099999999932e-01
4.355991000000000030e-02 3.979561000000000209e-02 1.533724700000000107e-01
3.411858999999999725e-02 6.133252000000000148e-02 1.540138699999999972e-01
2.656549000000000063e-02 6.510907000000000500e-02 1.512365300000000079e-01
3.789507999999999766e-02 6.133252000000000148e-02 1.546258899999999881e-01
4.544817999999999775e-02 6.652708000000000232e-02 1.526662699999999928e-01
5.490197000000000133e-02 6.597538999999999487e-02 1.530714900000000045e-01
4.914057000000000147e-02 8.635217000000000587e-02 1.517745500000000081e-01
5.474049999999999749e-02 7.455045000000000421e-02 1.523176300000000094e-01
5.137031999999999710e-02 9.720974999999999755e-02 1.528590599999999911e-01
5.878172999999999732e-02 8.199621999999999467e-02 1.537891999999999870e-01
3.700744999999999729e-02 1.164357399999999959e-01 1.517784100000000025e-01
3.317443999999999948e-02 1.335131499999999971e-01 1.539798400000000067e-01
1.428976399999999924e-01 4.056983000000000117e-02 1.523737500000000022e-01
3.931773000000000212e-02 1.368635300000000110e-01 1.562643099999999896e-01
1.502115699999999887e-01 5.000293000000000099e-02 1.519899999999999862e-01
4.448103999999999947e-02 1.444166299999999903e-01 1.531350599999999895e-01
5.021425999999999668e-02 1.481931800000000077e-01 1.543545100000000003e-01
1.631740299999999977e-01 5.702651000000000248e-02 1.524877500000000052e-01
1.700743399999999905e-01 5.755603000000000108e-02 1.506539600000000034e-01
1.679781399999999980e-01 7.643872000000000166e-02 1.551822099999999871e-01
1.851805400000000046e-01 6.024477000000000304e-02 1.532887800000000134e-01
1.814039899999999872e-01 6.630856000000000250e-02 1.524877500000000052e-01
1.776934000000000013e-01 7.458657000000000481e-02 1.533135300000000034e-01
4.131346000000000324e-02 1.678084900000000046e-01 1.536985899999999960e-01
1.738508900000000079e-01 8.021527999999999992e-02 1.543129699999999938e-01
2.360918499999999920e-01 3.678500999999999993e-02 1.543760299999999974e-01
2.338794499999999887e-01 4.475736999999999771e-02 1.568665499999999935e-01
1.995192000000000146e-02 1.999133800000000016e-01 1.553302900000000097e-01
1.369591000000000038e-02 2.112510200000000116e-01 1.540350600000000014e-01
9.824690000000000506e-03 5.334013100000000174e-01 1.562643099999999896e-01
1.559506000000000087e-02 5.473273400000000510e-01 1.562643099999999896e-01
2.330772000000000052e-02 5.641410900000000117e-01 1.548480999999999885e-01
6.970030000000000669e-02 6.093009099999999734e-01 1.582371700000000103e-01
7.181221000000000132e-02 6.128202099999999763e-01 1.563332400000000122e-01
8.675333999999999823e-02 6.240385200000000410e-01 1.541394000000000097e-01
1.665634400000000070e-01 6.006945799999999780e-01 1.543760299999999974e-01
1.645046199999999903e-01 6.098217200000000116e-01 1.546295000000000031e-01
1.003588900000000061e-01 6.331404000000000476e-01 1.544113500000000028e-01
1.638533899999999877e-01 6.183736899999999759e-01 1.538115100000000124e-01
1.639601699999999884e-01 6.396167900000000461e-01 1.527479300000000040e-01
1.172026399999999968e-01 6.399414700000000122e-01 1.534345099999999962e-01
1.260854999999999893e-01 6.442303000000000335e-01 1.525540700000000138e-01
1.375016000000000016e-01 6.468839499999999854e-01 1.541788600000000009e-01
1.362127900000000003e-01 6.600736499999999563e-01 1.518702700000000017e-01
1.040955900000000017e-01 7.480904600000000126e-01 1.545645099999999883e-01
1.658854800000000018e-01 6.488479400000000119e-01 1.522855200000000075e-01
1.681860699999999931e-01 6.566573700000000180e-01 1.531191799999999936e-01
1.719626200000000105e-01 6.607856300000000127e-01 1.542342499999999894e-01
1.390472399999999886e-01 6.757300499999999710e-01 1.519146399999999897e-01
1.870688199999999968e-01 6.646544399999999575e-01 1.557042100000000096e-01
2.047006199999999998e-01 6.618581399999999837e-01 1.527975799999999884e-01
1.417502200000000101e-01 6.891840099999999580e-01 1.544019600000000048e-01
2.153929499999999997e-01 6.655805700000000380e-01 1.521952199999999922e-01
1.359194699999999867e-01 7.004796899999999882e-01 1.542796899999999971e-01
1.308039300000000127e-01 7.118433100000000069e-01 1.556644299999999925e-01
2.396566199999999869e-01 7.077438400000000129e-01 1.534684000000000048e-01
2.401766200000000073e-01 7.288377900000000409e-01 1.565798100000000137e-01
2.550467299999999993e-01 7.440388199999999896e-01 1.535459200000000024e-01
9.851909000000000360e-02 7.578671000000000157e-01 1.524998399999999976e-01
9.915682000000000662e-02 7.740383699999999756e-01 1.538728799999999897e-01
1.001046000000000019e-01 8.128660300000000172e-01 1.544782100000000047e-01
1.038981100000000019e-01 8.270281000000000438e-01 1.544620999999999911e-01
9.727434999999999554e-02 8.015363800000000483e-01 1.529166499999999873e-01
1.115615699999999988e-01 8.403571600000000474e-01 1.557406600000000030e-01
1.153143600000000046e-01 8.516838599999999593e-01 1.537846200000000108e-01
2.437598599999999949e-01 8.475455600000000311e-01 1.525788700000000053e-01
2.362169500000000089e-01 8.572788799999999654e-01 1.519352300000000044e-01
1.606329700000000138e-01 8.815052500000000180e-01 1.526085399999999870e-01
1.681860699999999931e-01 8.816136399999999762e-01 1.532660399999999923e-01
1.785715800000000075e-01 8.815079000000000109e-01 1.527761800000000114e-01
1.470394399999999935e-01 8.750327199999999861e-01 1.552569099999999980e-01
1.913174400000000053e-01 8.777397500000000408e-01 1.539078000000000113e-01
2.513958399999999815e-01 7.703798400000000379e-01 1.546518699999999968e-01
2.570016099999999915e-01 7.784497099999999614e-01 1.525376999999999983e-01
2.602518200000000226e-01 7.958715600000000334e-01 1.521176399999999984e-01
2.600560199999999988e-01 8.015363800000000483e-01 1.519321800000000000e-01
2.512727399999999944e-01 8.301411600000000446e-01 1.543713800000000025e-01
2.458497900000000125e-01 -4.818738000000000188e-02 1.520687900000000092e-01
2.795943000000000178e-01 -2.445679900000000129e-01 1.501195399999999958e-01
2.833708500000000075e-01 -2.445679900000000129e-01 1.493012900000000032e-01
2.833708500000000075e-01 -2.407914399999999955e-01 1.504114900000000088e-01
3.173598100000000199e-01 -2.294617899999999988e-01 1.504932599999999898e-01
2.656549000000000063e-02 6.888561999999999463e-02 1.506711199999999917e-01
4.167164000000000285e-02 7.455045000000000421e-02 1.504576699999999878e-01
4.639232000000000078e-02 7.927114000000000382e-02 1.508756300000000106e-01
1.738508900000000079e-01 6.510907000000000500e-02 1.504652499999999948e-01
1.776274399999999976e-01 6.510907000000000500e-02 1.499662400000000007e-01
1.868785599999999991e-01 5.755603000000000108e-02 1.517949100000000051e-01
1.814039899999999872e-01 6.133252000000000148e-02 1.501587600000000022e-01
3.283506600000000164e-01 -2.219086899999999918e-01 1.521749500000000033e-01
3.315097100000000130e-01 -2.143555900000000125e-01 1.524877500000000052e-01
2.380522499999999930e-01 -4.415095000000000131e-02 1.524877500000000052e-01
2.304991500000000137e-01 -3.308117000000000002e-02 1.543450399999999889e-01
2.360057799999999983e-01 -4.063427000000000011e-02 1.524877500000000052e-01
2.254759100000000016e-01 -2.552806999999999993e-02 1.524877500000000052e-01
2.222987999999999909e-01 -1.938315999999999997e-02 1.524877500000000052e-01
2.160486399999999862e-01 7.615200000000000137e-04 1.529357100000000025e-01
3.480006500000000225e-01 -1.690369800000000033e-01 1.524877500000000052e-01
3.487700200000000139e-01 -1.614838799999999963e-01 1.524877500000000052e-01
3.491003500000000037e-01 -1.539307799999999893e-01 1.524877500000000052e-01
2.127020400000000089e-01 1.979053000000000062e-02 1.524877500000000052e-01
3.060606699999999791e-01 -1.461147399999999930e-01 1.525440499999999866e-01
3.036437000000000164e-01 -1.388245800000000030e-01 1.524877500000000052e-01
2.106310100000000074e-01 3.489673000000000080e-02 1.524877500000000052e-01
2.986539000000000277e-01 -1.310788699999999862e-01 1.524877500000000052e-01
3.127117200000000263e-01 -1.992493899999999984e-01 1.524877500000000052e-01
2.827149600000000151e-01 -1.170575300000000069e-01 1.524877500000000052e-01
3.331453799999999910e-01 -2.068024900000000055e-01 1.524877500000000052e-01
3.133606299999999734e-01 -1.916962899999999914e-01 1.521748900000000071e-01
2.792370299999999972e-01 -1.086121800000000026e-01 1.524877500000000052e-01
3.135832499999999801e-01 -1.841431900000000121e-01 1.510244599999999993e-01
2.796632099999999954e-01 -1.010590799999999956e-01 1.524877500000000052e-01
3.403530100000000114e-01 -1.841431900000000121e-01 1.524877500000000052e-01
2.833708500000000075e-01 -9.350598000000000243e-02 1.536431299999999889e-01
3.088133900000000209e-01 -1.652604300000000137e-01 1.524877500000000052e-01
3.067604899999999968e-01 -1.539307799999999893e-01 1.537565599999999866e-01
3.445046500000000234e-01 -1.765900900000000051e-01 1.540441499999999908e-01
3.284817300000000273e-01 -1.010590799999999956e-01 1.538639699999999888e-01
3.362425600000000236e-01 -1.134540400000000060e-01 1.524877500000000052e-01
3.135832499999999801e-01 -8.416337000000000124e-02 1.600408600000000070e-01
3.217456300000000047e-01 -9.350598000000000243e-02 1.510304199999999986e-01
3.060301500000000008e-01 -8.151614999999999556e-02 1.600408600000000070e-01
2.909239499999999867e-01 -8.676812000000000413e-02 1.543440799999999946e-01
3.060301500000000008e-01 -8.498985000000000567e-02 1.524877500000000052e-01
2.947295899999999857e-01 -8.595287999999999540e-02 1.524877500000000052e-01
2.984770500000000215e-01 -8.504111000000000309e-02 1.524877500000000052e-01
2.501742800000000266e-01 -3.308117000000000002e-02 1.524877500000000052e-01
2.492766399999999938e-01 -2.552806999999999993e-02 1.524877500000000052e-01
2.495886099999999885e-01 -4.063427000000000011e-02 1.524877500000000052e-01
2.480694099999999902e-01 -1.797496999999999984e-02 1.524877500000000052e-01
2.153929499999999997e-01 5.755603000000000108e-02 1.521598100000000064e-01
2.098735599999999868e-01 4.244983000000000090e-02 1.524877500000000052e-01
1.927336500000000064e-01 5.711883000000000238e-02 1.530547100000000105e-01
1.987563400000000036e-01 5.755603000000000108e-02 1.524877500000000052e-01
2.096890200000000037e-01 5.000293000000000099e-02 1.524877500000000052e-01
2.127208700000000063e-01 5.755603000000000108e-02 1.524877500000000052e-01
2.296294000000000113e-01 5.000293000000000099e-02 1.538429299999999889e-01
2.229460500000000067e-01 5.700427000000000272e-02 1.528788799999999948e-01
2.574757300000000138e-01 3.143613900000000183e-01 1.524877500000000052e-01
2.002867500000000134e-01 6.420802999999999927e-02 1.528422799999999970e-01
2.005225999999999953e-01 7.266216999999999815e-02 1.528249399999999925e-01
2.637312399999999779e-01 3.445737999999999857e-01 1.524877500000000052e-01
2.627141499999999796e-01 3.521269000000000204e-01 1.524877500000000052e-01
1.851805400000000046e-01 5.664468400000000070e-01 1.524877500000000052e-01
2.612707599999999908e-01 3.596799999999999997e-01 1.600408600000000070e-01
1.776274399999999976e-01 5.724325799999999687e-01 1.524877500000000052e-01
2.646563599999999794e-01 3.691213700000000042e-01 1.562643099999999896e-01
2.447938899999999862e-01 5.334013100000000174e-01 1.524877500000000052e-01
2.684880499999999781e-01 3.814417099999999894e-01 1.600408600000000070e-01
2.386238599999999932e-01 5.414771999999999919e-01 1.524877500000000052e-01
2.670783999999999936e-01 4.503171999999999731e-01 1.524877500000000052e-01
2.641357799999999867e-01 4.616468499999999975e-01 1.524877500000000052e-01
2.153929499999999997e-01 5.502482100000000154e-01 1.675939599999999863e-01
2.607115500000000141e-01 4.711299500000000195e-01 1.524877500000000052e-01
1.882482500000000059e-01 5.644759499999999486e-01 1.562643099999999896e-01
2.002867500000000134e-01 5.583770900000000204e-01 1.562643099999999896e-01
2.565904900000000044e-01 4.880827099999999752e-01 1.524877500000000052e-01
2.220056699999999883e-01 5.482035299999999944e-01 1.524877500000000052e-01
2.543259900000000018e-01 5.031889099999999893e-01 1.524877500000000052e-01
2.304991500000000137e-01 5.456486299999999678e-01 1.524877500000000052e-01
2.517743100000000012e-01 5.182951099999999478e-01 1.524877500000000052e-01
2.488374700000000050e-01 5.258482100000000381e-01 1.524877500000000052e-01
2.104082100000000122e-01 1.179807799999999934e-01 1.524877500000000052e-01
2.078398499999999927e-01 1.255338799999999866e-01 1.547164900000000121e-01
2.076196100000000100e-01 1.360440300000000102e-01 1.529877799999999899e-01
2.029089900000000113e-01 1.557462799999999870e-01 1.524877500000000052e-01
2.020453200000000005e-01 1.632993799999999940e-01 1.524877500000000052e-01
2.675878999999999897e-01 4.352110000000000145e-01 1.600408600000000070e-01
2.673038200000000253e-01 4.427640999999999938e-01 1.524877500000000052e-01
2.706887700000000230e-01 4.012220499999999967e-01 1.562643099999999896e-01
2.697312800000000177e-01 4.201048000000000004e-01 1.600408600000000070e-01
2.685753100000000115e-01 4.293844700000000181e-01 1.600408600000000070e-01
2.456053500000000001e-01 -3.308117000000000002e-02 1.473674799999999951e-01
2.380522499999999930e-01 -4.063427000000000011e-02 1.503055100000000033e-01
2.456053500000000001e-01 -4.063427000000000011e-02 1.496521199999999996e-01
3.135832499999999801e-01 -1.992493899999999984e-01 1.505461899999999964e-01
2.002867500000000134e-01 5.755603000000000108e-02 1.481200500000000031e-01
2.153929499999999997e-01 5.000293000000000099e-02 1.468764499999999917e-01
3.466776599999999986e-01 -1.388245800000000030e-01 1.524877500000000052e-01
3.413177700000000203e-01 -1.237183800000000028e-01 1.524877500000000052e-01
2.031539699999999893e-01 8.776837999999999307e-02 1.524877500000000052e-01
2.085347200000000067e-01 1.028745799999999933e-01 1.524877500000000052e-01
2.051141300000000056e-01 1.784055800000000080e-01 1.524877500000000052e-01
2.153929499999999997e-01 1.996576200000000079e-01 1.524877500000000052e-01
2.345314000000000010e-01 2.690427899999999761e-01 1.524877500000000052e-01
2.408902599999999949e-01 2.841489899999999902e-01 1.524877500000000052e-01
2.456053500000000001e-01 2.933705400000000130e-01 1.524877500000000052e-01
2.185080100000000025e-01 2.086179900000000031e-01 1.524877500000000052e-01
2.218185699999999927e-01 2.237241899999999895e-01 1.524877500000000052e-01
2.489795700000000112e-01 2.992551900000000042e-01 1.524877500000000052e-01
2.255302700000000049e-01 2.388303900000000035e-01 1.524877500000000052e-01
2.304991500000000137e-01 2.569493700000000103e-01 1.524877500000000052e-01
2.153929499999999997e-01 1.481931800000000077e-01 1.408854700000000126e-01
2.153929499999999997e-01 1.028745799999999933e-01 1.423746300000000020e-01
2.153929499999999997e-01 1.179807799999999934e-01 1.465400500000000050e-01
2.153929499999999997e-01 1.784055800000000080e-01 1.401784399999999875e-01
2.153929499999999997e-01 1.330869799999999936e-01 1.453177900000000022e-01
2.153929499999999997e-01 1.935117799999999944e-01 1.485399000000000025e-01
2.756760100000000269e-01 -2.452412200000000098e-01 1.562643099999999896e-01
5.772196999999999745e-02 2.554785000000000042e-02 1.555913999999999908e-01
2.783312800000000142e-01 -2.491923600000000016e-01 1.562643099999999896e-01
2.833708500000000075e-01 -2.503060100000000232e-01 1.562643099999999896e-01
2.865535599999999850e-01 -2.475575499999999873e-01 1.562643099999999896e-01
2.897524799999999789e-01 -2.424061600000000094e-01 1.562643099999999896e-01
2.758177499999999727e-01 -2.414970999999999923e-01 1.562643099999999896e-01
8.887850999999999391e-02 1.653036000000000089e-02 1.559769500000000031e-01
2.788987800000000128e-01 -2.362289999999999945e-01 1.562643099999999896e-01
