1.657152699999999979e-01 8.730118000000000600e-02 -1.680884599999999951e-01
1.267877099999999979e-01 1.457800599999999891e-01 -1.716558499999999987e-01
1.224880200000000030e-01 1.477921000000000096e-01 -1.732914700000000030e-01
1.218849000000000043e-01 1.529961200000000132e-01 -1.718906500000000059e-01
1.674086200000000080e-01 1.046512700000000046e-01 -1.618312299999999926e-01
1.192808600000000024e-01 1.635173500000000057e-01 -1.709531599999999929e-01
1.119755800000000051e-01 1.721759399999999995e-01 -1.720801700000000045e-01
9.975984999999999714e-02 1.881577399999999900e-01 -1.671730300000000002e-01
8.737807999999999686e-02 1.965599100000000043e-01 -1.747531900000000027e-01
8.659142000000000228e-02 2.090778899999999885e-01 -1.735999000000000014e-01
8.397498999999999936e-02 2.162546200000000085e-01 -1.740231499999999876e-01
8.280157999999999963e-02 2.226026700000000025e-01 -1.740231499999999876e-01
1.542786499999999894e-01 1.154576499999999950e-01 -1.742014400000000129e-01
1.484890600000000060e-01 1.278086599999999906e-01 -1.705203399999999925e-01
3.969923000000000202e-02 5.367417899999999964e-01 -1.730852999999999975e-01
4.532628999999999825e-02 5.407447800000000360e-01 -1.665204799999999985e-01
8.304614000000000440e-02 5.229294300000000284e-01 -1.670144799999999929e-01
7.721292999999999906e-02 5.247713899999999487e-01 -1.740231499999999876e-01
6.033175999999999817e-02 -5.032914899999999525e-01 -1.740231499999999876e-01
6.595885999999999416e-02 -5.039338500000000165e-01 -1.740231499999999876e-01
1.693129999999999982e-02 -4.618061199999999866e-01 -1.721474500000000074e-01
1.531529000000000050e-02 -4.584416700000000233e-01 -1.740231499999999876e-01
1.886967999999999979e-01 -4.299194199999999966e-01 -1.727116099999999876e-01
1.660026000000000002e-01 -5.571994000000000252e-02 -1.702718099999999957e-01
-7.242199999999999853e-03 2.753387700000000105e-01 -1.741186999999999874e-01
-8.039950000000000568e-03 2.865928400000000154e-01 -1.740231499999999876e-01
-2.538347000000000173e-02 3.916313599999999839e-01 -1.740231499999999876e-01
-2.530649000000000093e-02 4.685345300000000046e-01 -1.702717499999999995e-01
8.284002999999999506e-02 2.307207599999999970e-01 -1.702717499999999995e-01
8.099705000000000099e-02 2.340736399999999995e-01 -1.740231499999999876e-01
8.026403000000000010e-02 2.415764300000000087e-01 -1.740231499999999876e-01
7.908862999999999310e-02 2.432670600000000072e-01 -1.740231499999999876e-01
7.713944000000000356e-02 2.490791099999999925e-01 -1.740231499999999876e-01
7.641475999999999824e-02 2.528305100000000083e-01 -1.740231499999999876e-01
-9.027957999999999816e-02 -1.298095599999999905e-01 -1.740231499999999876e-01
7.533723000000000503e-02 -5.040826800000000052e-01 -1.740231499999999876e-01
-8.222037999999999569e-02 -1.320359700000000025e-01 -1.740231499999999876e-01
1.053482899999999972e-01 -5.032525100000000418e-01 -1.740231499999999876e-01
-7.471764000000000183e-02 -1.298095599999999905e-01 -1.796486399999999983e-01
-6.721491000000000271e-02 -1.350942900000000058e-01 -1.740231499999999876e-01
1.128509600000000002e-01 -5.025742100000000212e-01 -1.740231499999999876e-01
-5.943960000000000216e-02 -1.372280999999999918e-01 -1.740231499999999876e-01
1.203537600000000041e-01 -5.016295899999999586e-01 -1.740231499999999876e-01
1.278565500000000132e-01 -4.999617299999999931e-01 -1.740231499999999876e-01
-1.129538999999999960e-01 -9.979855999999999450e-02 -1.740231499999999876e-01
1.450408000000000079e-02 -4.524276899999999935e-01 -1.740231499999999876e-01
-1.151327500000000059e-01 -9.229582999999999537e-02 -1.740231499999999876e-01
-1.169393100000000046e-01 -8.479309000000000152e-02 -1.740231499999999876e-01
1.528755000000000044e-02 -4.447262000000000159e-01 -1.740231499999999876e-01
-1.180235699999999943e-01 -7.729036000000000239e-02 -1.740231499999999876e-01
-1.183321499999999971e-01 -6.978761999999999466e-02 -1.740231499999999876e-01
1.676433999999999910e-02 -4.374222199999999727e-01 -1.740231499999999876e-01
1.763164999999999871e-02 -4.299194199999999966e-01 -1.740231499999999876e-01
-1.183865100000000004e-01 -6.228482999999999936e-02 -1.740231499999999876e-01
-1.197341100000000047e-01 -5.478208999999999856e-02 -1.687486199999999881e-01
-1.163273499999999960e-01 -4.727935999999999944e-02 -1.740231499999999876e-01
1.884997000000000061e-02 -4.224166899999999836e-01 -1.740231499999999876e-01
-1.159089799999999948e-01 -3.227388999999999952e-02 -1.740231499999999876e-01
-1.153491100000000047e-01 -2.477108999999999908e-02 -1.740231499999999876e-01
-1.137787799999999960e-01 -1.351698999999999956e-02 -1.744706000000000035e-01
-1.047286399999999978e-01 -1.249119000000000063e-01 -1.740231499999999876e-01
-1.066142900000000004e-01 -1.223068199999999967e-01 -1.740231499999999876e-01
-9.722590000000000399e-02 -1.282175200000000015e-01 -1.740231499999999876e-01
-1.083979600000000015e-01 -1.148040899999999975e-01 -1.740231499999999876e-01
1.908566399999999941e-01 -4.224166899999999836e-01 -1.740231499999999876e-01
1.951707599999999987e-01 -4.137035600000000257e-01 -1.745308299999999979e-01
-1.096515099999999937e-01 -1.073013500000000037e-01 -1.740231499999999876e-01
1.962092500000000017e-01 -4.074112200000000183e-01 -1.721119299999999963e-01
1.988346000000000002e-01 -3.999084800000000106e-01 -1.740231499999999876e-01
1.993379000000000123e-01 -3.924056899999999737e-01 -1.740231499999999876e-01
1.428620200000000062e-01 -1.506820899999999908e-01 -1.740231499999999876e-01
1.997963799999999956e-01 -3.849029500000000215e-01 -1.740231499999999876e-01
1.503646999999999900e-01 -1.448150900000000074e-01 -1.720368899999999979e-01
1.962578600000000062e-01 -3.173782199999999887e-01 -1.702445999999999959e-01
1.958828599999999920e-01 -3.248810200000000203e-01 -1.740231499999999876e-01
1.937617699999999998e-01 -3.098754899999999757e-01 -1.740231499999999876e-01
1.671974999999999989e-01 -1.298095599999999905e-01 -1.705334199999999911e-01
1.907411199999999862e-01 -3.023727500000000235e-01 -1.740231499999999876e-01
1.714128600000000002e-01 -1.223068199999999967e-01 -1.702455599999999902e-01
-1.121616200000000035e-01 3.817409999999999814e-03 -1.739276100000000103e-01
-1.150541300000000045e-01 1.274263999999999952e-02 -1.665204799999999985e-01
-1.125546099999999994e-01 2.024536999999999864e-02 -1.665204799999999985e-01
-1.047286399999999978e-01 2.912622999999999948e-02 -1.740231499999999876e-01
-8.525190000000000198e-03 2.978470300000000126e-01 -1.740231499999999876e-01
-8.426009999999999403e-03 3.053497099999999964e-01 -1.740231499999999876e-01
-1.035710600000000065e-01 3.525090000000000168e-02 -1.723316300000000134e-01
-9.533140000000000711e-03 3.166038400000000252e-01 -1.740231499999999876e-01
-9.955706000000000278e-02 4.650496999999999964e-02 -1.745973500000000123e-01
-1.107710999999999939e-02 3.278579699999999986e-01 -1.740231499999999876e-01
-9.722590000000000399e-02 5.581616999999999829e-02 -1.740231499999999876e-01
-1.432704999999999916e-02 3.445142500000000219e-01 -1.740231499999999876e-01
-9.722590000000000399e-02 6.526184000000000152e-02 -1.718363800000000108e-01
-9.585971000000000075e-02 7.276464000000000543e-02 -1.720461799999999930e-01
-9.318202999999999903e-02 8.026730999999999450e-02 -1.740231499999999876e-01
-2.265883999999999954e-02 3.771473799999999765e-01 -1.740231499999999876e-01
-1.724600999999999912e-02 3.578689099999999845e-01 -1.740231499999999876e-01
-1.931899999999999937e-02 3.653717000000000215e-01 -1.740231499999999876e-01
7.734936000000000589e-02 2.603332999999999897e-01 -1.740231499999999876e-01
7.995360999999999441e-02 2.715873699999999946e-01 -1.740231499999999876e-01
8.656912999999999414e-02 3.128524999999999778e-01 -1.740231499999999876e-01
8.741503999999999941e-02 3.278579699999999986e-01 -1.740231499999999876e-01
8.752232999999999541e-02 3.353607699999999747e-01 -1.740231499999999876e-01
8.872729999999999506e-02 3.578689099999999845e-01 -1.740231499999999876e-01
9.344918000000000669e-02 3.803771699999999867e-01 -1.740231499999999876e-01
9.720950999999999897e-02 4.253936999999999857e-01 -1.740231499999999876e-01
9.684729999999999728e-02 4.385234700000000263e-01 -1.740231499999999876e-01
9.453364000000000211e-02 4.521221999999999741e-01 -1.665204799999999985e-01
9.734141999999999795e-02 4.666588300000000245e-01 -1.760826400000000125e-01
9.784548999999999330e-02 4.787586899999999868e-01 -1.740231499999999876e-01
9.747796999999999712e-02 5.004211699999999707e-01 -1.740231499999999876e-01
9.858005999999999713e-02 4.929183699999999946e-01 -1.740231499999999876e-01
9.431272999999999740e-02 5.079239599999999522e-01 -1.740231499999999876e-01
8.225280000000000091e-02 2.828414399999999995e-01 -1.740231499999999876e-01
8.421426999999999385e-02 2.940956399999999915e-01 -1.740231499999999876e-01
-8.972317000000000486e-02 7.276464000000000543e-02 -1.804640299999999975e-01
5.282909000000000216e-02 -4.995920999999999834e-01 -1.702717499999999995e-01
6.408316000000000012e-02 -5.035097600000000284e-01 -1.702717499999999995e-01
1.298816200000000032e-01 -4.974441499999999738e-01 -1.682888300000000004e-01
1.367742100000000072e-01 -4.933362900000000106e-01 -1.683961200000000102e-01
1.408006499999999994e-01 -4.897480699999999798e-01 -1.684313699999999969e-01
3.052384000000000000e-02 -4.788954300000000108e-01 -1.702717499999999995e-01
1.699170200000000019e-01 -2.479778199999999877e-01 -1.664711200000000002e-01
1.646413499999999919e-01 -2.403309499999999876e-01 -1.684149799999999919e-01
1.653144099999999950e-01 -2.278555899999999967e-01 -1.664693100000000092e-01
1.596293400000000084e-01 -2.217182199999999936e-01 -1.701826499999999909e-01
1.544803999999999899e-01 -1.860801599999999945e-01 -1.590176799999999946e-01
1.479535399999999945e-01 -1.757638800000000112e-01 -1.646577999999999931e-01
1.761848299999999867e-01 -1.073013500000000037e-01 -1.665204799999999985e-01
1.687311200000000122e-01 -6.876358000000000470e-02 -1.686401499999999887e-01
1.714872699999999972e-01 -1.726835999999999996e-02 -1.627690800000000104e-01
-8.656795999999999935e-02 1.081150200000000061e-01 -1.701523400000000130e-01
-8.230740000000000278e-02 1.143619399999999953e-01 -1.703799400000000075e-01
-8.021968999999999628e-02 1.252838400000000074e-01 -1.665204799999999985e-01
-6.721491000000000271e-02 1.440406999999999937e-01 -1.649323699999999948e-01
-5.869208000000000064e-02 1.515433800000000053e-01 -1.657998300000000091e-01
-4.002051000000000219e-02 1.918706599999999984e-01 -1.650193299999999919e-01
-2.603578999999999963e-02 2.265708999999999917e-01 -1.676130299999999962e-01
-1.844704000000000135e-02 2.357609099999999902e-01 -1.694478199999999990e-01
-1.391395999999999952e-02 2.465085399999999982e-01 -1.702717499999999995e-01
-1.094431000000000050e-02 2.603332999999999897e-01 -1.707991399999999882e-01
-1.028359000000000044e-02 2.753387700000000105e-01 -1.702717499999999995e-01
-1.061538000000000065e-02 2.884685399999999955e-01 -1.698760099999999940e-01
-2.584751999999999883e-02 3.881790299999999805e-01 -1.701149899999999937e-01
-2.893773999999999999e-02 4.009968300000000263e-01 -1.683961200000000102e-01
-2.865668999999999855e-02 4.113260200000000144e-01 -1.702717499999999995e-01
-2.903487999999999902e-02 4.235180000000000056e-01 -1.702717499999999995e-01
-2.807116999999999946e-02 4.403991700000000065e-01 -1.702717499999999995e-01
-2.646300000000000041e-02 4.497775999999999996e-01 -1.702717499999999995e-01
-2.594977999999999868e-02 4.621249399999999841e-01 -1.665204799999999985e-01
-2.523003999999999872e-02 4.657209800000000066e-01 -1.683961200000000102e-01
-2.288501999999999897e-02 5.004211699999999707e-01 -1.702717499999999995e-01
-8.798389999999999683e-03 5.172137900000000066e-01 -1.663237999999999939e-01
1.721565999999999930e-01 5.860630000000000353e-03 -1.664695700000000111e-01
1.742841499999999988e-01 2.566252000000000116e-02 -1.684074600000000088e-01
1.667169000000000012e-01 6.749378000000000322e-02 -1.663863200000000042e-01
1.670429300000000061e-01 7.839163999999999854e-02 -1.656176099999999984e-01
9.972103999999999691e-02 1.927497099999999908e-01 -1.646296800000000005e-01
1.906669000000000072e-02 -4.646632700000000171e-01 -1.702717499999999995e-01
1.536042999999999957e-02 -4.546582000000000123e-01 -1.703386299999999909e-01
9.135189999999999977e-02 2.021870000000000056e-01 -1.710771299999999939e-01
9.374762000000000373e-02 2.096896799999999894e-01 -1.700479699999999927e-01
9.394138999999999962e-02 2.153167699999999907e-01 -1.702253800000000095e-01
9.026860999999999913e-02 2.209125799999999973e-01 -1.696839900000000068e-01
8.659142000000000228e-02 2.191975399999999963e-01 -1.709675499999999959e-01
8.391350999999999671e-02 2.265708399999999956e-01 -1.702717499999999995e-01
1.582106899999999872e-01 1.146590100000000056e-01 -1.702717499999999995e-01
1.502533299999999905e-01 1.305819500000000022e-01 -1.671800200000000125e-01
1.353592299999999971e-01 1.440406999999999937e-01 -1.684079199999999887e-01
8.066136000000000139e-02 2.415764300000000087e-01 -1.702717499999999995e-01
7.797556999999999405e-02 2.528305100000000083e-01 -1.702717499999999995e-01
2.563346000000000027e-02 5.363356500000000526e-01 -1.678414799999999873e-01
3.219649000000000122e-02 5.390382099999999621e-01 -1.663928500000000088e-01
5.470473000000000002e-02 5.392973399999999584e-01 -1.665204799999999985e-01
6.033175999999999817e-02 5.367146699999999493e-01 -1.677382600000000001e-01
1.072239900000000051e-01 1.778030399999999955e-01 -1.709110100000000021e-01
9.034282000000000423e-02 2.096896799999999894e-01 -1.717575799999999930e-01
5.115542000000000006e-02 -4.947047500000000264e-01 -1.665204799999999985e-01
4.266056000000000015e-02 -4.870813299999999790e-01 -1.665204799999999985e-01
6.249927999999999734e-02 -4.984286299999999836e-01 -1.627690800000000104e-01
6.283097999999999461e-02 -5.016490799999999695e-01 -1.665204799999999985e-01
3.012445000000000053e-02 -4.733038399999999757e-01 -1.666589099999999934e-01
1.906669000000000072e-02 -4.603988500000000261e-01 -1.665204799999999985e-01
1.726066999999999879e-02 -4.533655300000000166e-01 -1.646447799999999906e-01
1.531529000000000050e-02 -4.494805900000000132e-01 -1.665204799999999985e-01
1.893547200000000041e-01 -2.873672800000000027e-01 -1.665204799999999985e-01
1.861480199999999974e-01 -2.782210900000000042e-01 -1.637069300000000005e-01
1.819979999999999931e-01 -2.658783699999999750e-01 -1.627690800000000104e-01
1.753944600000000020e-01 -2.543538399999999977e-01 -1.646805600000000036e-01
1.689333299999999927e-01 -2.273452900000000054e-01 -1.627690800000000104e-01
1.583042100000000008e-01 -2.029613600000000073e-01 -1.646447799999999906e-01
1.625855599999999901e-01 -2.123397599999999885e-01 -1.627690800000000104e-01
1.527073399999999970e-01 -1.804531199999999946e-01 -1.590176799999999946e-01
1.466134199999999943e-01 -1.710746900000000015e-01 -1.650890100000000082e-01
1.450291900000000023e-01 -1.654476199999999897e-01 -1.665204799999999985e-01
1.788006099999999987e-01 -1.007364099999999985e-01 -1.608006399999999947e-01
1.795752300000000024e-01 -9.464045000000000096e-02 -1.584300800000000009e-01
1.769666500000000031e-01 -8.819997000000000253e-02 -1.617075099999999988e-01
1.766308299999999887e-01 -7.761229999999999518e-02 -1.590421499999999932e-01
1.721302299999999952e-01 -3.790091999999999767e-02 -1.590176799999999946e-01
-9.093033999999999839e-02 1.084026700000000065e-01 -1.627690800000000104e-01
-8.628320999999999907e-02 1.156733600000000028e-01 -1.646447799999999906e-01
-8.575214000000000447e-02 1.233810800000000041e-01 -1.605728899999999959e-01
-7.564956000000000458e-02 1.336068800000000112e-01 -1.637069300000000005e-01
-7.130778000000000116e-02 1.440406999999999937e-01 -1.595752800000000138e-01
-5.854324000000000333e-02 1.571704700000000066e-01 -1.641758500000000121e-01
-5.802759999999999863e-02 1.627975700000000026e-01 -1.646447799999999906e-01
-5.847460000000000158e-02 1.665489699999999906e-01 -1.627690800000000104e-01
-5.600568999999999686e-02 1.721759399999999995e-01 -1.610161699999999863e-01
-3.858803999999999707e-02 2.012491499999999878e-01 -1.632136499999999879e-01
-3.179687999999999959e-02 2.213582099999999997e-01 -1.648151599999999883e-01
-2.594977999999999868e-02 2.359493400000000074e-01 -1.652683600000000030e-01
-1.793936000000000142e-02 2.509548099999999726e-01 -1.648642100000000110e-01
-1.462116999999999931e-02 2.560857500000000009e-01 -1.665204799999999985e-01
-1.252784000000000016e-02 2.809658099999999825e-01 -1.665204799999999985e-01
-2.669418000000000138e-02 3.841285700000000025e-01 -1.665204799999999985e-01
-3.644097000000000308e-02 4.150773600000000063e-01 -1.614861599999999897e-01
-3.834698000000000273e-02 4.300829199999999797e-01 -1.602252100000000068e-01
-2.970116999999999896e-02 4.460031700000000043e-01 -1.671559499999999976e-01
-2.764942999999999915e-02 4.535289399999999915e-01 -1.665204799999999985e-01
-2.670008000000000103e-02 4.929183699999999946e-01 -1.665204799999999985e-01
-2.562648000000000009e-02 4.966697700000000104e-01 -1.665204799999999985e-01
-2.465093000000000145e-02 5.004211699999999707e-01 -1.665204799999999985e-01
-2.219843999999999984e-02 5.033628900000000073e-01 -1.665204799999999985e-01
9.688260000000000621e-03 5.328057600000000171e-01 -1.623001500000000041e-01
1.782273900000000133e-01 2.212104000000000154e-02 -1.613623100000000088e-01
1.803164899999999959e-01 3.337520000000000070e-02 -1.594866100000000009e-01
1.733554200000000101e-01 5.886154999999999859e-02 -1.608933800000000025e-01
1.770801700000000090e-01 4.092910999999999772e-02 -1.627690800000000104e-01
1.709972600000000120e-01 6.582838000000000578e-02 -1.613817800000000025e-01
1.294697200000000104e-01 1.590461699999999867e-01 -1.647681900000000088e-01
1.354534300000000135e-01 -4.868112700000000181e-01 -1.626985999999999988e-01
1.401183500000000026e-01 -4.758737599999999790e-01 -1.644771200000000044e-01
1.446107600000000049e-01 -4.657296200000000108e-01 -1.642821399999999932e-01
1.469162599999999930e-01 -4.597758599999999807e-01 -1.627375899999999875e-01
1.691215600000000041e-01 -4.449249499999999857e-01 -1.637484999999999913e-01
1.015968899999999953e-01 2.003112999999999977e-01 -1.616113200000000028e-01
9.679620999999999365e-02 2.040627000000000135e-01 -1.665204799999999985e-01
9.784548999999999330e-02 2.134410700000000105e-01 -1.680411099999999935e-01
9.034282000000000423e-02 2.312600900000000015e-01 -1.660456100000000101e-01
8.659142000000000228e-02 2.305933799999999867e-01 -1.666330699999999942e-01
1.011539099999999997e-01 2.171312300000000084e-01 -1.665289100000000022e-01
1.018776299999999968e-01 2.228195699999999946e-01 -1.666992300000000038e-01
1.015059900000000043e-01 2.319207199999999969e-01 -1.661708399999999863e-01
1.484337900000000099e-01 1.403023300000000029e-01 -1.631045399999999923e-01
1.254991699999999932e-01 1.693368500000000110e-01 -1.644573500000000021e-01
1.011150499999999980e-01 1.965599100000000043e-01 -1.623914800000000047e-01
1.062861400000000012e-01 1.872584200000000088e-01 -1.640308099999999991e-01
1.193139700000000053e-01 1.757750700000000055e-01 -1.658664300000000091e-01
1.156131499999999979e-01 1.796319899999999914e-01 -1.656651199999999990e-01
3.997445000000000165e-02 5.417487300000000117e-01 -1.629413700000000020e-01
1.297321899999999972e-01 1.534190800000000132e-01 -1.664108599999999938e-01
8.306649000000000671e-02 2.406704100000000013e-01 -1.665204799999999985e-01
9.784548999999999330e-02 2.359197700000000009e-01 -1.659754499999999966e-01
7.992249999999999355e-02 2.528305100000000083e-01 -1.674909599999999943e-01
7.346158999999999328e-02 -5.042366099999999740e-01 -1.665204799999999985e-01
8.284002999999999506e-02 -5.053420100000000081e-01 -1.665204799999999985e-01
1.166023600000000021e-01 -5.014196600000000448e-01 -1.665204799999999985e-01
1.241051600000000060e-01 -4.989092399999999761e-01 -1.665204799999999985e-01
1.882058400000000131e-01 -4.231912800000000030e-01 -1.665204799999999985e-01
-1.201790999999999970e-02 3.015983099999999806e-01 -1.665204799999999985e-01
-1.125312000000000014e-02 3.053497099999999964e-01 -1.665204799999999985e-01
-1.482114000000000001e-02 3.347591200000000211e-01 -1.665204799999999985e-01
-2.544497999999999899e-02 4.779128999999999738e-01 -1.665204799999999985e-01
-1.877552000000000040e-02 3.454856299999999880e-01 -1.646447799999999906e-01
-2.283324000000000117e-02 3.683919900000000025e-01 -1.665204799999999985e-01
-2.509654000000000051e-02 3.766257800000000211e-01 -1.665204799999999985e-01
-2.118957000000000132e-02 3.541176300000000166e-01 -1.627690800000000104e-01
-1.963979000000000072e-02 3.578689099999999845e-01 -1.665204799999999985e-01
8.169550000000000423e-02 2.659602799999999934e-01 -1.665204799999999985e-01
9.681386000000000158e-02 4.141395099999999885e-01 -1.665204799999999985e-01
8.284002999999999506e-02 2.743012300000000070e-01 -1.667355299999999929e-01
9.664225999999999372e-02 4.235180000000000056e-01 -1.665204799999999985e-01
8.409326999999999774e-02 2.828414399999999995e-01 -1.646447799999999906e-01
9.542887999999999371e-02 4.366477699999999906e-01 -1.665204799999999985e-01
8.375322999999999796e-02 2.884685399999999955e-01 -1.665204799999999985e-01
9.784548999999999330e-02 2.209438699999999867e-01 -1.687091000000000007e-01
9.409409999999999996e-02 2.246952100000000063e-01 -1.687211999999999879e-01
9.784548999999999330e-02 2.265708399999999956e-01 -1.681129899999999899e-01
-9.722590000000000399e-02 -1.298559300000000083e-01 -1.666374800000000045e-01
-8.972317000000000486e-02 -1.334761999999999893e-01 -1.665204799999999985e-01
-8.222037999999999569e-02 -1.366932399999999936e-01 -1.665204799999999985e-01
-7.471764000000000183e-02 -1.382538100000000048e-01 -1.665204799999999985e-01
-6.721491000000000271e-02 -1.448150900000000074e-01 -1.592389300000000008e-01
-4.945796999999999694e-02 -1.448150900000000074e-01 -1.665204799999999985e-01
-1.122313699999999970e-01 -8.990114999999999912e-02 -1.665204799999999985e-01
-1.174104799999999976e-01 -7.729036000000000239e-02 -1.665204799999999985e-01
-1.194359700000000024e-01 -6.978761999999999466e-02 -1.665204799999999985e-01
-1.199506500000000059e-01 -6.228482999999999936e-02 -1.665204799999999985e-01
-1.204369099999999942e-01 -5.478208999999999856e-02 -1.665204799999999985e-01
-1.200633599999999940e-01 -4.727935999999999944e-02 -1.665204799999999985e-01
-1.192997100000000033e-01 -2.852249000000000104e-02 -1.665204799999999985e-01
-1.189959000000000017e-01 -1.726835999999999996e-02 -1.665204799999999985e-01
-1.187905699999999981e-01 -9.765619999999999162e-03 -1.665204799999999985e-01
-1.047286399999999978e-01 -1.255956300000000136e-01 -1.665204799999999985e-01
-1.066586399999999990e-01 -1.223068199999999967e-01 -1.665204799999999985e-01
-1.073976799999999954e-01 -1.148040899999999975e-01 -1.665204799999999985e-01
-1.091189399999999976e-01 -9.979855999999999450e-02 -1.665204799999999985e-01
9.816155000000000019e-02 -5.049795799999999835e-01 -1.659192999999999918e-01
1.053482899999999972e-01 -5.041219000000000117e-01 -1.665204799999999985e-01
1.487969999999999918e-02 -4.449249499999999857e-01 -1.665204799999999985e-01
1.531529000000000050e-02 -4.336944799999999933e-01 -1.665204799999999985e-01
1.553357000000000002e-02 -4.261680500000000205e-01 -1.638188999999999895e-01
1.668626000000000137e-02 -4.224166899999999836e-01 -1.665204799999999985e-01
1.705581000000000111e-02 -4.149139499999999758e-01 -1.665204799999999985e-01
1.633524999999999908e-02 -4.074112200000000183e-01 -1.665204799999999985e-01
1.892247800000000091e-01 -4.161791799999999819e-01 -1.646447799999999906e-01
1.917851600000000101e-01 -4.074112200000000183e-01 -1.627690800000000104e-01
1.960335400000000061e-01 -3.999084800000000106e-01 -1.665204799999999985e-01
1.974752499999999911e-01 -3.924056899999999737e-01 -1.665204799999999985e-01
1.981464000000000003e-01 -3.849029500000000215e-01 -1.665204799999999985e-01
1.957585199999999914e-01 -3.085319400000000045e-01 -1.665204799999999985e-01
1.918356999999999979e-01 -2.948700200000000105e-01 -1.665204799999999985e-01
1.653702900000000031e-01 -1.338418700000000017e-01 -1.665204799999999985e-01
-1.171688399999999963e-01 5.239839999999999949e-03 -1.665204799999999985e-01
-1.094866399999999962e-01 2.774810999999999944e-02 -1.665204799999999985e-01
-1.068883499999999931e-01 3.525090000000000168e-02 -1.665204799999999985e-01
-1.050480300000000006e-01 4.443711000000000189e-02 -1.665204799999999985e-01
-1.020622000000000057e-01 6.151043999999999956e-02 -1.665204799999999985e-01
-9.954702999999999469e-02 7.276464000000000543e-02 -1.665204799999999985e-01
-9.722590000000000399e-02 7.979875999999999636e-02 -1.661650500000000086e-01
-9.126692999999999611e-02 9.527278000000000135e-02 -1.665204799999999985e-01
-1.238649999999999994e-02 3.128524999999999778e-01 -1.665204799999999985e-01
-1.325279000000000040e-02 3.241065699999999827e-01 -1.665204799999999985e-01
-2.646690999999999974e-02 4.854157000000000055e-01 -1.665204799999999985e-01
8.497316000000000591e-02 2.978470300000000126e-01 -1.665204799999999985e-01
8.640796000000000587e-02 3.053497099999999964e-01 -1.665204799999999985e-01
8.790797000000000194e-02 3.128524999999999778e-01 -1.665204799999999985e-01
8.867305999999999799e-02 3.203551800000000171e-01 -1.665204799999999985e-01
8.830934999999999480e-02 3.278579699999999986e-01 -1.665204799999999985e-01
8.715314000000000394e-02 3.353607699999999747e-01 -1.665204799999999985e-01
8.586149999999999338e-02 3.503662300000000007e-01 -1.665204799999999985e-01
8.643608999999999321e-02 3.578689099999999845e-01 -1.665204799999999985e-01
8.911723000000000561e-02 3.653717000000000215e-01 -1.665204799999999985e-01
9.060717000000000076e-02 3.716706000000000176e-01 -1.665204799999999985e-01
9.247403999999999347e-02 3.878799700000000183e-01 -1.665204799999999985e-01
9.533136999999999861e-02 4.028854399999999836e-01 -1.665204799999999985e-01
9.457569999999999866e-02 4.629074300000000086e-01 -1.665204799999999985e-01
9.514528999999999348e-02 4.704102299999999848e-01 -1.665204799999999985e-01
9.784548999999999330e-02 4.929183699999999946e-01 -1.677597799999999972e-01
9.737629000000000423e-02 5.004211699999999707e-01 -1.665204799999999985e-01
9.547991000000000117e-02 5.079239599999999522e-01 -1.665204799999999985e-01
9.055947999999999776e-02 5.154266400000000470e-01 -1.672616000000000103e-01
7.506129000000000273e-02 5.302493700000000532e-01 -1.637137200000000070e-01
6.783456000000000208e-02 5.338127599999999973e-01 -1.665204799999999985e-01
1.351814999999999961e-02 -3.924056899999999737e-01 -1.590176799999999946e-01
1.214427000000000041e-02 -3.849029500000000215e-01 -1.515148900000000132e-01
1.977770899999999887e-01 -3.774002200000000085e-01 -1.665204799999999985e-01
1.976104399999999983e-01 -3.698974800000000007e-01 -1.665204799999999985e-01
8.583646999999999805e-02 3.428634400000000193e-01 -1.665204799999999985e-01
8.284002999999999506e-02 -5.049469500000000055e-01 -1.722831700000000132e-01
9.784548999999999330e-02 -5.049469500000000055e-01 -1.709476699999999960e-01
1.531529000000000050e-02 -4.374222199999999727e-01 -1.708420499999999953e-01
7.812559999999999644e-03 -3.601570700000000236e-01 -1.665204799999999985e-01
-1.760899999999999922e-03 -1.898315499999999878e-01 -1.665204799999999985e-01
-6.658139999999999892e-03 -1.748260299999999934e-01 -1.661688100000000001e-01
3.185030000000000153e-03 -3.398864899999999856e-01 -1.665204799999999985e-01
-7.192910000000000276e-03 -1.723359200000000035e-01 -1.665204799999999985e-01
-1.691776999999999864e-02 -1.598205600000000004e-01 -1.665204799999999985e-01
1.411499999999999994e-03 -3.248810200000000203e-01 -1.665204799999999985e-01
1.845360000000000099e-03 -3.098754899999999757e-01 -1.665204799999999985e-01
-3.720390999999999976e-02 -1.494759300000000068e-01 -1.665204799999999985e-01
-2.219843999999999984e-02 -1.563823799999999875e-01 -1.665204799999999985e-01
4.051270000000000045e-03 -2.948700200000000105e-01 -1.665204799999999985e-01
7.812559999999999644e-03 -2.798644900000000213e-01 -1.694675700000000118e-01
7.542850000000000249e-03 -2.648590200000000006e-01 -1.665204799999999985e-01
7.812559999999999644e-03 -2.599874099999999744e-01 -1.665204799999999985e-01
7.838789999999999994e-03 -2.491009499999999877e-01 -1.665204799999999985e-01
6.644129999999999828e-03 -2.348480199999999907e-01 -1.665204799999999985e-01
9.830180000000000862e-03 -3.698974800000000007e-01 -1.665204799999999985e-01
6.066740000000000153e-03 -2.198425499999999977e-01 -1.683082599999999873e-01
1.391950000000000088e-03 -2.048370200000000085e-01 -1.665204799999999985e-01
1.963172599999999934e-01 -3.548919600000000063e-01 -1.665204799999999985e-01
1.970606400000000091e-01 -3.398864899999999856e-01 -1.665204799999999985e-01
7.812559999999999644e-03 -1.898315499999999878e-01 -1.737505199999999916e-01
7.812559999999999644e-03 -1.748260299999999934e-01 -1.752136900000000053e-01
-7.192910000000000276e-03 -1.598205600000000004e-01 -1.713747999999999938e-01
7.812559999999999644e-03 -2.948700200000000105e-01 -1.741180400000000017e-01
-3.720390999999999976e-02 -1.448150900000000074e-01 -1.711031199999999974e-01
-2.219843999999999984e-02 -1.448150900000000074e-01 -1.777847999999999928e-01
7.812559999999999644e-03 -2.048370200000000085e-01 -1.723794899999999963e-01
5.320566999999999658e-02 -4.918171000000000070e-01 -1.631439000000000084e-01
7.160835999999999590e-02 -5.007687100000000058e-01 -1.604489000000000054e-01
7.627510999999999319e-02 -5.035775900000000194e-01 -1.627690800000000104e-01
7.908862999999999310e-02 -5.023329899999999792e-01 -1.590176799999999946e-01
1.128509600000000002e-01 -5.003249499999999905e-01 -1.608933800000000025e-01
4.110599000000000197e-02 -4.731790000000000163e-01 -1.604638300000000017e-01
3.032081999999999833e-02 -4.667137900000000172e-01 -1.627690800000000104e-01
1.906669000000000072e-02 -4.549449700000000041e-01 -1.627690800000000104e-01
1.621424999999999950e-02 -4.374222199999999727e-01 -1.590176799999999946e-01
1.307100499999999943e-01 -4.902027600000000152e-01 -1.606295000000000084e-01
1.336630099999999988e-01 -4.805139500000000230e-01 -1.607527800000000118e-01
1.539722500000000049e-01 -4.465913300000000086e-01 -1.572520400000000096e-01
1.803272099999999878e-01 -4.319564300000000023e-01 -1.608933800000000025e-01
1.839201699999999939e-01 -4.266865699999999872e-01 -1.608933800000000025e-01
1.771910899999999955e-01 -2.447396900000000097e-01 -1.591529499999999875e-01
1.702848100000000087e-01 -2.329723200000000105e-01 -1.630105699999999935e-01
1.585310100000000000e-01 -1.973342899999999955e-01 -1.608933800000000025e-01
1.477933499999999900e-01 -1.673232900000000134e-01 -1.590176799999999946e-01
1.721572299999999944e-01 -5.853349000000000052e-02 -1.590176799999999946e-01
1.714516299999999938e-01 -5.290642000000000261e-02 -1.590176799999999946e-01
-9.775156000000000123e-02 1.027755699999999967e-01 -1.515148900000000132e-01
-7.454226999999999381e-02 1.382365200000000016e-01 -1.604244700000000134e-01
-6.322970999999999453e-02 1.515433800000000053e-01 -1.587004099999999862e-01
-5.095460000000000267e-02 1.832077500000000025e-01 -1.575216799999999973e-01
-3.802542999999999895e-02 2.115893100000000027e-01 -1.613547999999999927e-01
-3.167393999999999765e-02 2.367373999999999867e-01 -1.613175199999999920e-01
-2.312238999999999961e-02 2.472034100000000123e-01 -1.628342600000000084e-01
-1.844704000000000135e-02 2.565818999999999739e-01 -1.635448899999999983e-01
-1.469570000000000078e-02 2.715873699999999946e-01 -1.650521799999999928e-01
-1.797233999999999984e-02 2.772144400000000064e-01 -1.614053699999999925e-01
-1.467169999999999933e-02 2.850395700000000199e-01 -1.626875999999999878e-01
-1.424395999999999995e-02 2.959713299999999769e-01 -1.627690800000000104e-01
-1.476988000000000086e-02 3.015983099999999806e-01 -1.628778600000000132e-01
-1.610667000000000001e-02 3.278579699999999986e-01 -1.627690800000000104e-01
-1.839373000000000050e-02 3.362985800000000136e-01 -1.608933800000000025e-01
-2.509451999999999863e-02 3.638145600000000091e-01 -1.608933800000000025e-01
-2.905693999999999985e-02 3.794393200000000244e-01 -1.613759100000000113e-01
-3.341485000000000288e-02 4.036520699999999739e-01 -1.622368200000000038e-01
-3.705109000000000180e-02 4.385234700000000263e-01 -1.608252699999999924e-01
-4.071678000000000103e-02 4.460262700000000025e-01 -1.552332600000000118e-01
-2.770001000000000060e-02 4.610317299999999729e-01 -1.627690800000000104e-01
-2.682680000000000134e-02 4.704102299999999848e-01 -1.590176799999999946e-01
-2.542072999999999902e-02 4.760371999999999937e-01 -1.627690800000000104e-01
-1.816198000000000118e-02 5.113605300000000353e-01 -1.616983999999999921e-01
-1.667660000000000062e-03 5.383335900000000285e-01 -1.426354499999999970e-01
4.061160000000000291e-03 5.384585299999999908e-01 -1.485907399999999989e-01
1.763206300000000060e-01 4.928484999999999810e-02 -1.610581399999999885e-01
1.739549800000000090e-01 7.886054000000000674e-02 -1.558618099999999895e-01
1.725837600000000027e-01 9.902418000000000331e-02 -1.552662800000000065e-01
1.676116199999999890e-01 1.135899600000000037e-01 -1.573285799999999957e-01
1.285088699999999973e-01 1.742448199999999947e-01 -1.610080200000000017e-01
1.283258499999999913e-01 -4.942689699999999742e-01 -1.624354699999999985e-01
1.054075800000000007e-01 2.176565799999999884e-01 -1.628182699999999872e-01
4.345058999999999727e-02 -4.843143699999999940e-01 -1.642826799999999865e-01
1.067546000000000050e-01 2.246952100000000063e-01 -1.630967600000000073e-01
1.585127299999999906e-01 1.291995900000000030e-01 -1.597457100000000130e-01
9.034282000000000423e-02 2.415764300000000087e-01 -1.618561699999999937e-01
8.667755000000000598e-02 2.437139999999999862e-01 -1.624445300000000036e-01
1.393100100000000119e-01 1.495004699999999964e-01 -1.630629600000000068e-01
9.945935000000000192e-02 2.447799300000000067e-01 -1.629014900000000099e-01
8.461261000000000476e-02 2.509548099999999726e-01 -1.627690800000000104e-01
8.532368999999999370e-02 2.584244900000000067e-01 -1.608933800000000025e-01
1.072239900000000051e-01 2.336047099999999932e-01 -1.629835400000000101e-01
1.072239900000000051e-01 2.397007300000000007e-01 -1.629360900000000056e-01
1.034725900000000032e-01 2.424660899999999952e-01 -1.636889300000000103e-01
9.715234999999999843e-02 4.122638699999999767e-01 -1.627690800000000104e-01
1.090996899999999992e-01 2.472034100000000123e-01 -1.612296099999999954e-01
9.796344999999999359e-02 4.253936999999999857e-01 -1.629888999999999921e-01
8.435982000000000203e-02 2.678359699999999788e-01 -1.627690800000000104e-01
9.611358999999999875e-02 4.357099199999999728e-01 -1.627690800000000104e-01
8.533101999999999354e-02 2.790901700000000263e-01 -1.627690800000000104e-01
8.603226999999999403e-02 2.894063900000000134e-01 -1.616229399999999927e-01
9.444397999999999682e-02 4.535289399999999915e-01 -1.627690800000000104e-01
1.664902000000000049e-02 5.389197199999999910e-01 -1.581414800000000009e-01
2.188021000000000063e-02 5.414087199999999545e-01 -1.568727000000000038e-01
4.532628999999999825e-02 5.431808200000000086e-01 -1.590176799999999946e-01
6.390764999999999640e-02 -4.939985299999999913e-01 -1.589362300000000117e-01
6.989144999999999386e-02 -4.974441499999999738e-01 -1.582573700000000083e-01
1.242856400000000028e-01 -4.938063200000000208e-01 -1.590176799999999946e-01
3.782355999999999913e-02 -4.651272900000000265e-01 -1.583685900000000035e-01
2.925192000000000070e-02 -4.525443800000000238e-01 -1.558619099999999924e-01
5.358711000000000030e-02 -4.852522100000000171e-01 -1.596606399999999926e-01
1.951334000000000055e-02 -4.455352699999999833e-01 -1.578219800000000006e-01
1.821429999999999924e-02 -4.407142499999999741e-01 -1.570329699999999939e-01
1.302283399999999980e-01 -4.861900499999999847e-01 -1.590176799999999946e-01
1.278565200000000013e-01 -4.731620000000000270e-01 -1.556241399999999941e-01
1.329792599999999880e-01 -4.655574900000000182e-01 -1.563816199999999990e-01
1.432144099999999864e-01 -4.500052800000000075e-01 -1.541447900000000037e-01
1.653702900000000031e-01 -4.317951199999999767e-01 -1.508554799999999863e-01
1.769861299999999915e-01 -4.278846599999999722e-01 -1.548595899999999914e-01
1.867359299999999944e-01 -4.169624900000000189e-01 -1.590176799999999946e-01
1.878784300000000129e-01 -2.733552499999999941e-01 -1.583345499999999906e-01
1.863338400000000006e-01 -2.648590200000000006e-01 -1.552662800000000065e-01
1.868906899999999982e-01 -2.561146599999999940e-01 -1.515148900000000132e-01
1.825494000000000006e-01 -2.549540800000000274e-01 -1.571553199999999872e-01
1.737588599999999872e-01 -2.326787600000000122e-01 -1.591511999999999927e-01
1.704591299999999865e-01 -2.213304899999999908e-01 -1.571419799999999867e-01
1.652790299999999934e-01 -2.103778599999999999e-01 -1.571419799999999867e-01
1.812131399999999948e-01 -1.073013500000000037e-01 -1.537825499999999901e-01
1.763070800000000049e-01 -6.795919000000000265e-02 -1.563411200000000001e-01
1.746937299999999915e-01 -4.529720000000000274e-02 -1.534346600000000005e-01
-9.447323999999999999e-02 1.084026700000000065e-01 -1.555713699999999866e-01
-8.999753000000000613e-02 1.166908100000000059e-01 -1.576088999999999962e-01
-8.852530000000000121e-02 1.215324400000000055e-01 -1.570310600000000001e-01
-8.577426999999999968e-02 1.305934199999999878e-01 -1.530953600000000137e-01
-7.844292999999999405e-02 1.365207999999999977e-01 -1.552475399999999894e-01
-6.721491000000000271e-02 1.515433800000000053e-01 -1.532781099999999952e-01
-6.257050999999999585e-02 1.552947799999999934e-01 -1.571724700000000086e-01
-5.950688999999999979e-02 1.703002499999999864e-01 -1.587479099999999921e-01
-5.707513000000000170e-02 1.871814699999999887e-01 -1.504366099999999984e-01
-5.423843999999999888e-02 1.928085099999999885e-01 -1.515148900000000132e-01
-4.303372999999999921e-02 2.042805000000000037e-01 -1.582877000000000034e-01
-3.982358999999999899e-02 2.228195699999999946e-01 -1.579949300000000056e-01
-3.701921999999999852e-02 2.303222400000000114e-01 -1.588593699999999997e-01
-3.465874000000000038e-02 2.479726800000000009e-01 -1.555720700000000067e-01
-2.978120999999999893e-02 2.584576000000000096e-01 -1.560528099999999863e-01
-2.356302999999999870e-02 2.697116700000000145e-01 -1.592432300000000134e-01
-2.412914999999999852e-02 2.769554900000000264e-01 -1.574165999999999899e-01
-1.797077000000000049e-02 2.893772700000000198e-01 -1.588220300000000029e-01
-1.771688000000000082e-02 2.950334800000000146e-01 -1.582134400000000107e-01
-1.767644000000000160e-02 3.039429599999999843e-01 -1.580224600000000035e-01
-1.816092999999999874e-02 3.259822700000000184e-01 -1.585628099999999985e-01
-2.224053000000000141e-02 3.463973000000000191e-01 -1.580798300000000045e-01
-2.987924000000000135e-02 3.685137600000000235e-01 -1.552662800000000065e-01
-3.317831000000000252e-02 3.781892399999999821e-01 -1.552662800000000065e-01
-3.353736000000000217e-02 3.902978599999999965e-01 -1.581520100000000095e-01
-3.660022999999999749e-02 4.047691800000000062e-01 -1.590153599999999945e-01
-4.616325000000000289e-02 4.207044500000000076e-01 -1.527426799999999918e-01
-3.654853000000000268e-02 4.524887799999999793e-01 -1.569869499999999862e-01
-3.513932000000000166e-02 4.606050600000000106e-01 -1.548150799999999938e-01
-2.813320999999999877e-02 4.666588300000000245e-01 -1.590176799999999946e-01
-2.594977999999999868e-02 4.768955100000000225e-01 -1.584147200000000089e-01
-2.539109999999999978e-02 4.835400000000000253e-01 -1.590176799999999946e-01
-2.268695999999999907e-02 5.079239599999999522e-01 -1.590176799999999946e-01
1.838204099999999896e-01 2.970447999999999839e-02 -1.538547700000000018e-01
1.831600700000000082e-01 4.181573000000000234e-02 -1.540863100000000041e-01
1.771651800000000054e-01 7.189204000000000427e-02 -1.523821599999999887e-01
1.752344100000000071e-01 8.766053999999999513e-02 -1.530451200000000067e-01
1.281765699999999897e-01 1.848089499999999996e-01 -1.569870999999999905e-01
1.070837399999999967e-01 1.928085099999999885e-01 -1.599779100000000009e-01
1.147266599999999942e-01 1.939123899999999900e-01 -1.556773499999999921e-01
1.072239900000000051e-01 1.965599100000000043e-01 -1.581073400000000129e-01
1.102660599999999991e-01 2.029313699999999998e-01 -1.543772499999999936e-01
1.203537600000000041e-01 1.860612000000000099e-01 -1.595105500000000009e-01
1.131673499999999999e-01 2.078139800000000093e-01 -1.517913300000000021e-01
1.141107700000000003e-01 2.115653799999999973e-01 -1.515148900000000132e-01
1.616188899999999873e-01 1.401036999999999977e-01 -1.515148900000000132e-01
1.556495699999999871e-01 1.410140400000000072e-01 -1.569536900000000068e-01
1.106238100000000030e-01 2.246952100000000063e-01 -1.594084799999999913e-01
1.124731000000000064e-01 2.350114899999999896e-01 -1.590391399999999955e-01
1.505605999999999889e-01 1.520848900000000004e-01 -1.558663100000000079e-01
1.521709900000000060e-01 1.615601600000000082e-01 -1.510213400000000039e-01
9.034282000000000423e-02 2.462743500000000030e-01 -1.595324899999999990e-01
8.835107000000000377e-02 2.490791099999999925e-01 -1.590176799999999946e-01
9.409409999999999996e-02 2.522610699999999762e-01 -1.579196200000000105e-01
1.371927300000000127e-01 1.590461699999999867e-01 -1.600253299999999934e-01
1.133549199999999979e-01 2.453277100000000044e-01 -1.593587399999999987e-01
1.130458099999999966e-01 2.502938499999999844e-01 -1.591223499999999957e-01
1.034725900000000032e-01 2.585719799999999791e-01 -1.572631200000000062e-01
1.072239900000000051e-01 2.532994299999999921e-01 -1.595709299999999997e-01
9.830384999999999818e-02 4.308998900000000076e-01 -1.590176799999999946e-01
9.607545000000000668e-02 4.450883600000000162e-01 -1.590176799999999946e-01
8.791709000000000329e-02 2.659602799999999934e-01 -1.552662800000000065e-01
8.577424000000000159e-02 2.715873699999999946e-01 -1.590176799999999946e-01
9.925657999999999703e-02 4.178909100000000043e-01 -1.590176799999999946e-01
1.003770499999999954e-01 4.244558500000000234e-01 -1.571419799999999867e-01
8.674221999999999488e-02 2.818983800000000040e-01 -1.590176799999999946e-01
8.795005000000000184e-02 2.884685399999999955e-01 -1.590176799999999946e-01
2.957956000000000127e-02 5.426832099999999715e-01 -1.573059699999999894e-01
8.846711999999999632e-02 -5.037841199999999464e-01 -1.590176799999999946e-01
9.596979999999999400e-02 -5.035746399999999623e-01 -1.590176799999999946e-01
1.044104399999999933e-01 -5.017563699999999516e-01 -1.590176799999999946e-01
1.531529000000000050e-02 -4.301755400000000229e-01 -1.590176799999999946e-01
8.769733000000000389e-02 2.940956399999999915e-01 -1.590176799999999946e-01
9.031694999999999307e-02 2.997226700000000243e-01 -1.567710599999999899e-01
9.058653999999999318e-02 3.053497099999999964e-01 -1.594536300000000129e-01
9.471314999999999595e-02 4.591560399999999875e-01 -1.590176799999999946e-01
9.424061000000000243e-02 4.666588300000000245e-01 -1.590176799999999946e-01
9.427077000000000373e-02 4.760371999999999937e-01 -1.590176799999999946e-01
-9.722590000000000399e-02 -1.319615799999999950e-01 -1.590176799999999946e-01
-9.979259999999999520e-02 -1.298095599999999905e-01 -1.590176799999999946e-01
-8.222037999999999569e-02 -1.396368699999999963e-01 -1.590176799999999946e-01
-8.934314999999999618e-02 -1.371245100000000050e-01 -1.577750400000000053e-01
-1.047286399999999978e-01 -1.241359699999999983e-01 -1.590176799999999946e-01
-1.047286399999999978e-01 -1.223068199999999967e-01 -1.557755500000000126e-01
-1.053980899999999998e-01 -1.148040899999999975e-01 -1.552662800000000065e-01
-1.050984300000000066e-01 -1.073013500000000037e-01 -1.590176799999999946e-01
-1.063497699999999963e-01 -9.979855999999999450e-02 -1.590176799999999946e-01
-1.086398999999999976e-01 -9.229582999999999537e-02 -1.590176799999999946e-01
-1.122313699999999970e-01 -8.479309000000000152e-02 -1.613701600000000125e-01
1.540616000000000034e-02 -4.228856100000000229e-01 -1.565512300000000134e-01
1.535930999999999928e-02 -4.149139499999999758e-01 -1.589635000000000076e-01
1.552767000000000036e-02 -4.074112200000000183e-01 -1.590176799999999946e-01
1.924725200000000080e-01 -3.999084800000000106e-01 -1.590176799999999946e-01
1.948878199999999894e-01 -3.924056899999999737e-01 -1.602830299999999930e-01
1.956430100000000061e-01 -3.849029500000000215e-01 -1.590176799999999946e-01
1.957940499999999973e-01 -3.774002200000000085e-01 -1.574118700000000093e-01
1.969412000000000107e-01 -3.698974800000000007e-01 -1.590176799999999946e-01
1.986558999999999964e-01 -3.248810200000000203e-01 -1.590176799999999946e-01
2.000562499999999910e-01 -3.173782199999999887e-01 -1.515148900000000132e-01
1.982447499999999974e-01 -3.098754899999999757e-01 -1.590176799999999946e-01
1.953812199999999943e-01 -3.023727500000000235e-01 -1.631854799999999939e-01
1.934627899999999956e-01 -2.873672800000000027e-01 -1.590176799999999946e-01
1.907160900000000048e-01 -2.798644900000000213e-01 -1.590176799999999946e-01
1.465910099999999938e-01 -1.598205600000000004e-01 -1.590176799999999946e-01
1.511393199999999937e-01 -1.523178199999999927e-01 -1.529562499999999881e-01
1.503646999999999900e-01 -1.498217599999999983e-01 -1.590176799999999946e-01
1.653702900000000031e-01 -1.369659300000000135e-01 -1.581555600000000006e-01
1.728729599999999922e-01 -1.298095599999999905e-01 -1.554321100000000122e-01
1.753753999999999869e-01 -1.223068199999999967e-01 -1.590176799999999946e-01
1.790638599999999914e-01 -1.147123899999999974e-01 -1.551857000000000097e-01
-1.002621699999999977e-01 8.026730999999999450e-02 -1.590176799999999946e-01
-9.697949999999999626e-02 8.777010000000000367e-02 -1.590176799999999946e-01
-2.600020000000000109e-02 4.929183699999999946e-01 -1.590176799999999946e-01
-2.599436000000000108e-02 5.004211699999999707e-01 -1.590176799999999946e-01
9.127747999999999418e-02 3.128524999999999778e-01 -1.609829700000000030e-01
9.265083000000000346e-02 3.203551800000000171e-01 -1.590176799999999946e-01
9.117377000000000120e-02 3.278579699999999986e-01 -1.609080400000000022e-01
9.362906000000000006e-02 3.316093700000000144e-01 -1.515148900000000132e-01
8.938819000000000625e-02 3.353607699999999747e-01 -1.590176799999999946e-01
8.757895000000000263e-02 3.428634400000000193e-01 -1.590176799999999946e-01
8.550017999999999507e-02 3.503662300000000007e-01 -1.590176799999999946e-01
8.496123999999999343e-02 3.578689099999999845e-01 -1.590176799999999946e-01
8.645326000000000399e-02 3.653717000000000215e-01 -1.590176799999999946e-01
8.885329999999999617e-02 3.728744999999999976e-01 -1.590176799999999946e-01
9.101763000000000214e-02 3.842855399999999810e-01 -1.584510199999999980e-01
9.392612999999999657e-02 3.953826400000000074e-01 -1.590176799999999946e-01
9.636741999999999531e-02 4.028854399999999836e-01 -1.590176799999999946e-01
9.519105999999999401e-02 4.854157000000000055e-01 -1.590176799999999946e-01
9.634417000000000675e-02 5.004211699999999707e-01 -1.590176799999999946e-01
9.470826000000000244e-02 5.079239599999999522e-01 -1.552662800000000065e-01
9.232920000000000016e-02 5.154266400000000470e-01 -1.590176799999999946e-01
8.428376999999999397e-02 5.242360200000000248e-01 -1.590176799999999946e-01
5.282909000000000216e-02 5.426459300000000541e-01 -1.590176799999999946e-01
6.783456000000000208e-02 5.394549400000000494e-01 -1.515148900000000132e-01
6.033175999999999817e-02 5.403662900000000269e-01 -1.590176799999999946e-01
9.034282000000000423e-02 -5.049469500000000055e-01 -1.628433499999999978e-01
