9.278349603603427975e-02 -7.159619213489833989e-01 -5.068290646894013651e-01
7.037386530601118240e-02 -7.101661877904047460e-01 -4.951331625364384093e-01
1.402686391415313982e-01 -7.182154528061699406e-01 -5.318692582991947360e-01
2.133635759446214641e-01 -7.759262419047059378e-01 -5.699012326234490500e-01
2.163237106937132281e-01 -7.714253639836216037e-01 -5.709069281297125542e-01
2.166813970964866498e-01 -7.679710747581113273e-01 -5.695888170145584350e-01
2.080027687777211420e-01 -7.534336132499069860e-01 -5.665025032370559765e-01
1.989126903236792532e-01 -7.479397403505561037e-01 -5.619540214832244862e-01
-5.552388563430020463e-02 -2.662818888654925331e-01 -4.389075721871402713e-01
-5.717873716211659130e-02 -2.406235388488905114e-01 -4.314473181125582091e-01
-8.977766069645949643e-02 -2.153611186340152750e-01 -4.163847499577507105e-01
-7.794907960779647038e-02 -2.147948948706963901e-01 -4.183173270240466701e-01
-1.635369958792980416e-01 -3.921418534267891998e-01 -3.796529079380521754e-01
-1.933237047377564521e-01 -2.735352296743428502e-01 -3.669495325651745410e-01
-1.887369456353502617e-01 -2.702302204019870757e-01 -3.694585495284766208e-01
1.532243468882251436e-01 -8.006447111822172502e-01 -5.366040383549340875e-01
1.598350973825920229e-01 -8.000322912399424613e-01 -5.401138045711985081e-01
1.550557904494584693e-01 -7.313919685234882007e-01 -5.352225885805915739e-01
1.943536574558465124e-01 -7.785486172711395536e-01 -5.580359920957916886e-01
1.970183873533291607e-01 -7.759563800766747788e-01 -5.603839131954023722e-01
2.004199953042208049e-01 -7.764408076537991921e-01 -5.621693933922835562e-01
2.020848433883845607e-01 -7.756349638156422310e-01 -5.588257439765760282e-01
2.066965593269495804e-01 -7.766920981219689324e-01 -5.625141654678473824e-01
2.111709998205465455e-01 -7.765930180109038572e-01 -5.661515783252856204e-01
1.027148376224005788e-01 -7.151679023289921888e-01 -5.120985621508017394e-01
1.096040207369381736e-01 -7.150053749467019104e-01 -5.157439601811650842e-01
-1.578990414535964004e-01 -3.863464167530676896e-01 -3.827813632590689741e-01
-1.500075270609054212e-01 -3.802136704797288158e-01 -3.824094645555196070e-01
-1.450834178772694161e-01 -3.804432582582059075e-01 -3.893136446117613780e-01
-1.387145412276465373e-01 -3.791827055342191777e-01 -3.931048278898738313e-01
-1.002530984733739222e-01 -3.519039074166346870e-01 -4.141325938977992727e-01
-9.557029649662580895e-02 -3.491520679906746083e-01 -4.166781945231318729e-01
-8.924508109292310365e-02 -3.461917969190990152e-01 -4.200972245082671974e-01
-2.093731407526951416e-01 -2.986952993652025601e-01 -3.535775428247630581e-01
-2.097940318038800656e-01 -2.913097194184877670e-01 -3.583246913566952574e-01
-2.043822664932432032e-01 -2.830256705530400096e-01 -3.620374509600965962e-01
-1.979718358740038542e-01 -2.767500942065857505e-01 -3.644103884614117717e-01
2.351922146708311512e-02 -8.335376767929164599e-01 -4.672061236131231365e-01
1.652194060768370776e-02 -8.309734446231701321e-01 -4.635734850785696026e-01
9.856453548692065136e-03 -8.271317255685841641e-01 -4.601489592220834868e-01
3.040645105723779884e-02 -8.351981473307182879e-01 -4.708037610082186908e-01
3.720189383888850010e-02 -8.361031009060923003e-01 -4.743722509322802483e-01
4.393005936200948536e-02 -8.364550521380702541e-01 -4.779193567762039518e-01
5.136494556814778095e-02 -8.365582616379775294e-01 -4.800717827521206460e-01
1.664134333714768210e-01 -7.991524445538988886e-01 -5.436132931490341713e-01
-9.709966760520771789e-04 -8.140132787097484890e-01 -4.547624416718109575e-01
-3.839644018763688216e-03 -7.994759836806371034e-01 -4.451303772796287306e-01
-5.292803863075609683e-03 -7.922430237714782608e-01 -4.445477185992053326e-01
-7.831925515318458042e-03 -7.771334325386892727e-01 -4.520814683037906456e-01
1.160853797640807178e-01 -7.151673536818243804e-01 -5.191654875711975148e-01
1.227814271699005089e-01 -7.152552670022024328e-01 -5.227023855662378260e-01
1.294139976248742940e-01 -7.148212731981440360e-01 -5.262191110583325226e-01
1.361833055316694907e-01 -7.155123284145525897e-01 -5.297792703312683704e-01
-8.284056135297244994e-02 -3.438835473789934039e-01 -4.235414572899018348e-01
-7.686144740189650160e-02 -3.400654970582155379e-01 -4.267995447305422685e-01
-7.088177257265916575e-02 -3.322767603595035979e-01 -4.301597074967962175e-01
-6.497823318539890092e-02 -3.237282222214066252e-01 -4.334991050401065249e-01
-5.960574362303862339e-02 -3.150575533502320003e-01 -4.365609502450887303e-01
-6.688888988145937076e-02 -3.235422352420543324e-01 -4.364182130364487322e-01
-1.960756848827197030e-01 -4.001455543746200716e-01 -3.535234312442931959e-01
-2.015538740601300893e-01 -3.961805957883907103e-01 -3.507464942191910739e-01
-2.052156787317080955e-01 -3.910418888507927737e-01 -3.484556639804349820e-01
-2.146205509266226330e-01 -3.603008340488297878e-01 -3.428586331667417553e-01
-2.094592511899404652e-01 -3.838876485677618633e-01 -3.464647401703451202e-01
-1.751322192966865421e-01 -3.983421548954537150e-01 -3.619658548393271391e-01
-1.659833912488087315e-01 -3.943261213997759640e-01 -3.719375303085175055e-01
-2.189469176579306731e-01 -3.437022834547484029e-01 -3.452416285750338210e-01
-2.178520473379146338e-01 -3.330403021624062654e-01 -3.466241345019270836e-01
-2.151852224599098973e-01 -3.242101343215932907e-01 -3.477294814013350832e-01
-2.116761980782564945e-01 -3.139785725615019119e-01 -3.498464141347499834e-01
-1.904920655938788232e-01 -2.734610181743395985e-01 -3.599595908528406829e-01
-1.842383781120638386e-01 -2.652407229138273315e-01 -3.677198814998458021e-01
-1.832800935480810578e-01 -2.590216278776375503e-01 -3.683857878080242232e-01
-1.777701521832760756e-01 -2.471091927730717785e-01 -3.716033770355232635e-01
-1.734925503521428936e-01 -2.407655802075604756e-01 -3.737177066326226593e-01
-1.618706640923414097e-01 -2.353322963153367808e-01 -3.757601373262921540e-01
-1.586027576602041522e-01 -2.348356134070282153e-01 -3.798300803666788128e-01
-1.288526722094466281e-01 -2.193848458419712377e-01 -3.981690327160062881e-01
-1.236735712365453349e-01 -2.154769128102030085e-01 -3.995603765710636357e-01
-1.202190122332218308e-01 -2.163912656202734708e-01 -4.033731457171138013e-01
-1.124006854604729794e-01 -2.026878666101595561e-01 -3.970918701742143786e-01
6.745762050388581788e-02 -8.367632724506719466e-01 -4.861025430016699400e-01
7.529605618340376449e-02 -8.337565875780973412e-01 -4.906897877497827243e-01
1.044414642409362132e-01 -8.268318154907957629e-01 -5.016604386405850713e-01
1.183430282591115545e-01 -8.186595201658389831e-01 -5.124006822340265721e-01
1.449877006246881039e-01 -8.115009467937694954e-01 -5.233636774917505008e-01
1.585178934574441312e-01 -8.014377385691675570e-01 -5.308930919242584867e-01
1.624712264035912956e-01 -7.999650844643495518e-01 -5.351424725671015681e-01
1.824179836843426716e-01 -7.957291549966877264e-01 -5.434266179698489241e-01
-3.595322421314398054e-03 -7.577673665700010996e-01 -4.505728490416525678e-01
-3.077135996082017155e-03 -7.520153233742921106e-01 -4.509941726612119450e-01
-3.357870973156512617e-03 -7.463769102930462029e-01 -4.509903190418186880e-01
1.774176478299806237e-02 -7.055599517369631757e-01 -4.573735919847493059e-01
6.137728012252857690e-02 -7.010588324442325048e-01 -4.846036697128991988e-01
1.781373268290756817e-01 -7.443681443250359520e-01 -5.437867157989336730e-01
9.263783956299552480e-02 -7.107546655034447936e-01 -4.978846200826322899e-01
9.655394570405734234e-02 -7.134976534341116450e-01 -5.046408266867525860e-01
7.174410930236890804e-02 -7.063724450637274277e-01 -4.874661512392750029e-01
6.644835889258630945e-02 -7.025435312611715277e-01 -4.847652623712949693e-01
1.928925335247091977e-01 -7.946777159306317451e-01 -5.405656989248477373e-01
1.964123199036077183e-01 -7.889498450858596357e-01 -5.448757297725487225e-01
1.958305627687517703e-01 -7.791788179258027913e-01 -5.554292473707799216e-01
1.989803551717421737e-01 -7.775931101101272169e-01 -5.571346950104835161e-01
2.144491229897710349e-01 -7.722843879512577558e-01 -5.631626834639843482e-01
2.146684574267271883e-01 -7.685319541215366312e-01 -5.614145597053716852e-01
2.112473802868997108e-01 -7.594186127905283579e-01 -5.640842087495158141e-01
1.908689708578934496e-01 -7.481163503792435110e-01 -5.526574475737349168e-01
2.027189179099810612e-01 -7.531970452333096588e-01 -5.582901320968003400e-01
-5.057114560571317197e-02 -3.005720319484797565e-01 -4.332189401383854110e-01
-4.943250027518140965e-02 -2.950410926203180240e-01 -4.339625357373191328e-01
-4.899797223431630322e-02 -2.760104454492374182e-01 -4.357410806856534813e-01
-4.973515443821942272e-02 -2.657055347354728148e-01 -4.356018995486549694e-01
-9.746060022953546842e-02 -2.128608781452445420e-01 -4.119760117977765423e-01
-1.849053520954119789e-01 -4.002599322875584620e-01 -3.567682000053650215e-01
-1.905409500984758253e-01 -4.002989057410549223e-01 -3.546257737613875416e-01
-2.108080939306056778e-01 -3.692607288518321984e-01 -3.425219147271619802e-01
-1.669574412980999734e-01 -3.936834820967316517e-01 -3.655483751478210142e-01
-1.856733175913699574e-01 -2.664312678103841758e-01 -3.626866986790343028e-01
-1.839292133120233319e-01 -2.593603134824882250e-01 -3.616676892293842482e-01
-1.820444477607144895e-01 -2.534120976473511755e-01 -3.628644663891456568e-01
-1.768059750062821456e-01 -2.450156673670269292e-01 -3.679224105550715773e-01
-1.752831962833726887e-01 -2.419291555994095011e-01 -3.688063803618019110e-01
-1.650762821325866825e-01 -2.359164685069601031e-01 -3.707360436276549431e-01
-1.504890748210926943e-01 -2.261679851279513043e-01 -3.797441038939930458e-01
-1.373551700658280916e-01 -2.206031188284701960e-01 -3.841977464990005697e-01
-1.337082840882974910e-01 -2.200925799937355209e-01 -3.911202894472039504e-01
-1.279266573770810878e-01 -2.155783396559619314e-01 -3.945118038728505083e-01
6.433560460495234279e-02 -8.378243823504113452e-01 -4.801809848812604309e-01
7.748808135045145984e-02 -8.360307134059988821e-01 -4.871786155558145981e-01
8.401065000807186878e-02 -8.346933646705144705e-01 -4.906603556317141179e-01
9.578621202962075976e-02 -8.308657602567750544e-01 -4.969823621458976937e-01
1.101621653492658448e-01 -8.280430441328614499e-01 -5.004361939726786890e-01
1.213404166772357740e-01 -8.248092008450066404e-01 -5.063999308662909815e-01
1.305035162917808911e-01 -8.222421255446952237e-01 -5.112093450837562614e-01
1.546327593916777265e-01 -8.035689965077241759e-01 -5.287850004774369284e-01
-3.451640823662283086e-03 -7.541255941792360806e-01 -4.464979006070635692e-01
-2.286699002598951980e-03 -7.450134403435760833e-01 -4.446102074866117859e-01
2.466681790884869829e-03 -7.331957143994629611e-01 -4.469793352744163006e-01
5.089845827305358728e-03 -7.266375644826845726e-01 -4.494509201746773042e-01
7.554703001351303904e-03 -7.199264917474776926e-01 -4.507481450753091923e-01
1.340569162381285984e-02 -7.078600337796625563e-01 -4.526249454811289152e-01
2.971469617640519478e-02 -6.924570731601059626e-01 -4.595619250118457289e-01
3.516616566932113941e-02 -6.908439071655169128e-01 -4.625169247754004620e-01
5.921984246805921115e-02 -6.930359313872118676e-01 -4.752449844339328711e-01
5.467465158673125158e-02 -6.922449351158759256e-01 -4.740365636893129619e-01
1.662915967459293876e-01 -7.397394474224899819e-01 -5.347623419330350680e-01
9.911230665347404989e-02 -7.115258651000304635e-01 -5.017993350309695177e-01
2.049134619286028525e-01 -7.828916214344534552e-01 -5.474021149750467607e-01
1.995520322830785509e-01 -7.803676026038662839e-01 -5.527780431608335654e-01
2.042094500805762824e-01 -7.775905618564793453e-01 -5.556543253983576847e-01
2.071663833661402110e-01 -7.754376621213624476e-01 -5.572723772146671584e-01
2.105627375128491241e-01 -7.758797780341488703e-01 -5.590561651046904723e-01
2.127080649010124613e-01 -7.689749999513474377e-01 -5.561228690497963534e-01
2.089738967553018967e-01 -7.598720279023228885e-01 -5.587798115670218335e-01
1.940110934913240048e-01 -7.525530786363265889e-01 -5.486536838501272495e-01
-4.715935803885605571e-02 -2.853360424249550831e-01 -4.332906644243966210e-01
-4.155984629353089155e-02 -2.734294118367205928e-01 -4.301891061315078479e-01
-4.946038827573089047e-02 -2.544324369399409425e-01 -4.328666088365508702e-01
-4.889687229116383704e-02 -2.398867691995627272e-01 -4.280421709497753135e-01
-6.970435997920883253e-02 -2.202225300620425374e-01 -4.221624948403903677e-01
-5.881477117356075091e-02 -2.339607846259421364e-01 -4.293530128163849380e-01
-6.374621298710995976e-02 -2.289353188805126893e-01 -4.274663225895340424e-01
1.675184093782139116e-01 -7.994853433473826376e-01 -5.335782089135370221e-01
1.734797861918682127e-01 -7.992748967496645651e-01 -5.303681088042511149e-01
1.732634372936764922e-01 -7.990011084566162047e-01 -5.387492083862228665e-01
1.766041067338572912e-01 -7.989845702718680887e-01 -5.405153209750143128e-01
8.560515921564293418e-02 -7.104042824502437847e-01 -4.946889708909981143e-01
-1.531854742747998377e-01 -3.818834129198447891e-01 -3.727317686241535255e-01
-1.356240583929734789e-01 -3.756045218869613067e-01 -3.863415120875702824e-01
-9.844266766021946002e-02 -3.515129973916299999e-01 -4.066110170918873501e-01
-9.206309020003204668e-02 -3.489997013540159787e-01 -4.100473226647054492e-01
-8.568531513476433659e-02 -3.464715148639790909e-01 -4.134830572741369781e-01
-2.083129871901995833e-01 -3.062798759878573307e-01 -3.496992294456638950e-01
-2.056609617230010234e-01 -2.944721092738897816e-01 -3.514036032637725682e-01
-2.037372149664249954e-01 -2.904869125000392183e-01 -3.525225376668769672e-01
-2.000771791447450987e-01 -2.854166373851454996e-01 -3.545869894791293664e-01
-1.943292020842301016e-01 -2.777110553573781115e-01 -3.578225584591449571e-01
2.714030723150648305e-02 -8.343214950695125864e-01 -4.606114451712532420e-01
2.191115292426898398e-02 -8.318005707437940988e-01 -4.536680123756972605e-01
1.403568456851908564e-02 -8.274381591714998763e-01 -4.515778584265136009e-01
5.425233023855936115e-02 -8.373698990184352819e-01 -4.748631866746531593e-01
3.400901744137921345e-02 -8.358297207404113971e-01 -4.642031966972131607e-01
4.080045420644543702e-02 -8.367017414933897168e-01 -4.677704134204972442e-01
-5.565801572632533833e-03 -7.852855181768125803e-01 -4.445817661859933767e-01
5.402435040707670444e-03 -8.137638577919207306e-01 -4.411605505359122437e-01
-1.163709135810944706e-03 -8.067980697230476839e-01 -4.463570410641851116e-01
-6.103539178681088861e-03 -7.772161220922084723e-01 -4.445043878620068001e-01
-6.234918895522925664e-03 -7.696636954807717368e-01 -4.446285360511461060e-01
-5.256578964011091037e-03 -7.619533976669011777e-01 -4.453432658431141777e-01
1.059314267219060579e-01 -7.126264181399672992e-01 -5.053753257118852593e-01
1.198169941806551397e-01 -7.168598103512554554e-01 -5.126059375824623121e-01
1.128453712641246665e-01 -7.145056290105173957e-01 -5.089814762418590766e-01
7.875135783205695905e-02 -7.090186931103392709e-01 -4.911019558425356313e-01
1.398092370866195200e-01 -7.185838069543252216e-01 -5.237868178296348765e-01
1.265586534638550031e-01 -7.173226916292702038e-01 -5.161573320421367628e-01
1.331157575648431179e-01 -7.162683009845329796e-01 -5.196500726558520578e-01
-7.620513291827536728e-02 -3.404897811326005885e-01 -4.186470718784982559e-01
-7.332060653298981545e-02 -3.382021693629915782e-01 -4.202303065229648915e-01
-6.800161265822739221e-02 -3.317193420671317172e-01 -4.240517480150842178e-01
-6.215124586754940117e-02 -3.233124755356538982e-01 -4.274546268615535549e-01
-5.558675039821771302e-02 -3.148441279192222275e-01 -4.302021450662252278e-01
-5.192494575495591735e-02 -3.067522569616359940e-01 -4.323449830296173801e-01
-1.281831353760804482e-01 -3.712441779972943667e-01 -3.903861293884428596e-01
-1.216370548470243756e-01 -3.661791863664511371e-01 -3.897316298269442036e-01
6.609151100110705057e-03 -8.208348505573779264e-01 -4.501055360826712870e-01
-1.169267664337369367e-01 -3.614232923533798325e-01 -3.965873430160723467e-01
-1.110499243419616616e-01 -3.577888333835386736e-01 -3.997866694266277166e-01
-1.152604759937552875e-01 -3.607603411626776335e-01 -4.084925090767527744e-01
-1.904684899872162163e-01 -3.939373316950505743e-01 -3.494365402056414660e-01
-1.991659428352786088e-01 -3.806363174695225338e-01 -3.424295538418015705e-01
-2.063581584122581858e-01 -3.744047476253321571e-01 -3.421955623107009181e-01
-1.558778308650424216e-01 -3.834859678948114858e-01 -3.637629198608348657e-01
-2.095546062244532104e-01 -3.484261190362903382e-01 -3.394742321606956659e-01
-2.114997660415992020e-01 -3.429422912044513549e-01 -3.407088202522104980e-01
-2.092855180086010680e-01 -3.351178687999075145e-01 -3.404881410365331873e-01
-2.052703192802497467e-01 -3.261319772795688854e-01 -3.401880287517825008e-01
-2.047602944050157525e-01 -3.174598030753861821e-01 -3.428019799810044232e-01
-1.850518907473890917e-01 -2.663712661532702253e-01 -3.571068353518440652e-01
-1.836829545050268075e-01 -2.593899760833220380e-01 -3.556141883464910558e-01
-1.795869410499403296e-01 -2.493609982929324287e-01 -3.620969856328886127e-01
-1.761729366192033575e-01 -2.460971459131926220e-01 -3.554966757901104057e-01
-1.729017600269974198e-01 -2.412954643456891313e-01 -3.641622427437959941e-01
-1.673774433157578234e-01 -2.364321639915943629e-01 -3.646373841856632714e-01
-1.400041858716781218e-01 -2.212034311759379646e-01 -3.789558751547350002e-01
-1.317351689544326576e-01 -2.162241238826559664e-01 -3.890384419124249260e-01
-1.272874366553305991e-01 -2.061444928035233159e-01 -3.855395018435318621e-01
-1.229400683064760941e-01 -2.036047041053445361e-01 -3.889737790543701390e-01
-1.050311841017596975e-01 -1.995207757045869001e-01 -3.984933629103925568e-01
8.912999121764315913e-02 -8.348069407711573575e-01 -4.891190564336828639e-01
1.023592844552881354e-01 -8.328922979492601186e-01 -4.919161391547068329e-01
1.072551412034818408e-01 -8.319213949537668240e-01 -4.945286984971733468e-01
1.432092560314271457e-01 -8.166367424152429777e-01 -5.180409769051164126e-01
1.523284892658429146e-01 -8.138363246344092472e-01 -5.210456105048950626e-01
1.677293658281530375e-01 -8.059847022262447425e-01 -5.229126022645700367e-01
1.591648122317573799e-01 -8.030569452933481456e-01 -5.277700881705438274e-01
1.651465210440900000e-01 -8.002200451485922406e-01 -5.301836398818711160e-01
1.784307855441583102e-01 -7.995093427716598589e-01 -5.372231668888328704e-01
1.284437146878703029e-03 -7.348527396375771348e-01 -4.410067044406990044e-01
4.443423790870346807e-02 -6.874700555305731653e-01 -4.647995070962779862e-01
5.162787603728682256e-02 -6.876254839773272565e-01 -4.679454562618924895e-01
6.298137692488732509e-02 -6.948569301279942101e-01 -4.765789597988334125e-01
6.591815798473457666e-02 -6.989867052300449135e-01 -4.806133905764036762e-01
1.731950256048234715e-01 -7.461715171784608636e-01 -5.315787989477712694e-01
1.823403603307367504e-01 -7.485996157792456085e-01 -5.405944936013394875e-01
1.635256757758231649e-01 -7.403545263200840276e-01 -5.263477611326463634e-01
1.589292050285350255e-01 -7.368314451134703180e-01 -5.243267080969672422e-01
1.517677971080811927e-01 -7.305868346957014037e-01 -5.162935970036640621e-01
1.857852621181214081e-01 -7.977647558781294501e-01 -5.390329200983192681e-01
1.899005371261928976e-01 -7.968700525859536699e-01 -5.391088301102316960e-01
2.030767945098481131e-01 -7.816251366232642717e-01 -5.505148302378853886e-01
2.059770288078076050e-01 -7.786476808391121773e-01 -5.523172889494116777e-01
2.095740334641014724e-01 -7.771104430094133431e-01 -5.545387297211956668e-01
2.051900185283438149e-01 -7.625818365929282194e-01 -5.495028321525370352e-01
2.122054701773024576e-01 -7.748923586535660935e-01 -5.557055488601636561e-01
2.128636603688977558e-01 -7.727747137562642754e-01 -5.551708291705892417e-01
-4.171195604454587536e-02 -2.660613008263537083e-01 -4.303197481165648153e-01
-4.293691707800749435e-02 -2.566007754010803388e-01 -4.296198504995910605e-01
-5.313830311833610265e-02 -2.296898849957381417e-01 -4.259644080829376178e-01
-5.735805183664559326e-02 -2.262936515508484348e-01 -4.252885274086043443e-01
-8.947598436516600307e-02 -2.063582617603426927e-01 -4.101388930131667498e-01
-7.148232200961528171e-02 -2.098293099895828240e-01 -4.160149429384248920e-01
-8.211768785780339253e-02 -2.099140816863591386e-01 -4.146737819084520549e-01
-1.800500883912784511e-01 -3.909591473751010127e-01 -3.491833465912496104e-01
-1.843169069892444667e-01 -3.890592064842381403e-01 -3.465282570920840133e-01
-1.911611982007962451e-01 -3.875744352348350907e-01 -3.450139255907542224e-01
-1.949425356403609033e-01 -3.838496855202659930e-01 -3.432077134590920120e-01
-1.966777664122401625e-01 -3.724454769346252636e-01 -3.385962076014761291e-01
-2.020345467662699734e-01 -3.647564914580688766e-01 -3.381068708241071752e-01
-2.044810135236780901e-01 -3.601492570926275727e-01 -3.381959451435906372e-01
-1.770775141743471948e-01 -3.924839704023177500e-01 -3.520529556227042778e-01
-1.637211447138017806e-01 -3.882568191699400373e-01 -3.580171015318614480e-01
-2.041727724218276863e-01 -3.535309530759095931e-01 -3.372298224011683887e-01
-2.034851497443069812e-01 -3.097073551976279870e-01 -3.436746643580300686e-01
-1.807086162968364884e-01 -2.498002196813576548e-01 -3.572486235790965914e-01
-1.753805644175170375e-01 -2.445978641694410982e-01 -3.601980797734166129e-01
-1.622815380353153647e-01 -2.280301826966344703e-01 -3.633019849760619757e-01
-1.584749416040080461e-01 -2.275949679200295617e-01 -3.695692624156189932e-01
-1.487900757714069599e-01 -2.242684969586643817e-01 -3.726513090971301789e-01
-1.367563948522388384e-01 -2.171035236991661621e-01 -3.797343667329554084e-01
-1.309943299374542458e-01 -2.064654695606562562e-01 -3.791733491398792677e-01
-1.075431736647943642e-01 -1.965255416829769508e-01 -3.943653838996544203e-01
9.496890988428785541e-02 -8.339659776598389307e-01 -4.879824845332256245e-01
1.132624405873250278e-01 -8.297822134352746959e-01 -4.977586494474233736e-01
1.252856675578247481e-01 -8.269275208779606201e-01 -5.041866194009984037e-01
1.314873954273349799e-01 -8.250345514920501833e-01 -5.075130231891071819e-01
1.393387820512698994e-01 -8.211894504894939883e-01 -5.116232401132656538e-01
1.461112735100041082e-01 -8.208454538369081011e-01 -5.111055837872336971e-01
1.522105744541828731e-01 -8.167806151592085229e-01 -5.186776915597308690e-01
1.670612516524897506e-01 -8.014684456244777211e-01 -5.269194086656170395e-01
1.701992914646573707e-01 -7.997861216370769633e-01 -5.286211210717147724e-01
1.785860811439498597e-01 -7.992813335349820969e-01 -5.288226716626176493e-01
1.485234130973456246e-04 -7.387998714014143431e-01 -4.403051496596492309e-01
5.424090951185484011e-03 -7.214195806012905221e-01 -4.414169264284280580e-01
7.306987511843346383e-03 -7.141794068373620297e-01 -4.425977031411392759e-01
1.033602421675862415e-02 -7.028659371319377902e-01 -4.406858422338222891e-01
1.312198487222759891e-02 -6.976543336222696956e-01 -4.424725770747816034e-01
2.196133102162071971e-02 -6.875957447032177150e-01 -4.472853978461400204e-01
2.595690829198872562e-02 -6.844529121684599371e-01 -4.488294001045535775e-01
3.942781592950703184e-02 -6.829856099204723030e-01 -4.574389683093710857e-01
6.949528244509356467e-02 -6.948306698431516715e-01 -4.717186672543492443e-01
1.834286554143081394e-01 -7.525648330696915744e-01 -5.347017254920354290e-01
7.664150115223042348e-02 -7.052079135899608220e-01 -4.815960536833892580e-01
7.306593868255860380e-02 -6.994969967617489237e-01 -4.756083948890341140e-01
2.094837968503962811e-01 -7.797812243100261664e-01 -5.498974626380771502e-01
2.078373595019928910e-01 -7.699397152682549983e-01 -5.464946377404493738e-01
1.869052518668696816e-01 -7.568897390551682092e-01 -5.327035648041478222e-01
1.978701710038298922e-01 -7.598930184907417562e-01 -5.428181328015853069e-01
2.116784504176222048e-01 -7.768869047639366254e-01 -5.503546701651258477e-01
2.114329165773647379e-01 -7.731303973767499338e-01 -5.504723697823635797e-01
-4.226666558607593271e-02 -2.811010343148762081e-01 -4.296188781202291973e-01
-6.004508085999181455e-02 -2.138866926419732417e-01 -4.181481084563447581e-01
-7.349254100765896525e-02 -2.035418505022385804e-01 -4.127351124380779224e-01
-8.073582213776205052e-02 -1.975865468508752609e-01 -4.083049374735248649e-01
-2.032400576679766480e-01 -3.058869132148067660e-01 -3.439021338771256486e-01
1.885916176072430228e-01 -7.990971854941669728e-01 -5.341157517764615337e-01
1.466569147918124205e-01 -7.258031220664060701e-01 -5.111467337694528545e-01
1.452426261905148952e-01 -7.252153933207917680e-01 -5.069495779811578062e-01
1.369785094672090753e-01 -7.190390111344624469e-01 -5.131322526816619600e-01
-1.454254944744443057e-01 -3.759617651243990499e-01 -3.726634395420269086e-01
-1.388857037908655667e-01 -3.747654831511723628e-01 -3.761506663025358521e-01
-1.323663899564070934e-01 -3.734009375241331141e-01 -3.796313831893375901e-01
-1.269388757143194990e-01 -3.701592520688622434e-01 -3.846621492771538087e-01
-2.017001400431860936e-01 -2.984787492075068327e-01 -3.452524896209227534e-01
-1.958879144876761735e-01 -2.897708522565638489e-01 -3.463471227516726203e-01
-1.926835714036190250e-01 -2.816722909591420909e-01 -3.501023775490137990e-01
-1.907643819791132733e-01 -2.780325157954947057e-01 -3.512100491625630982e-01
-1.881880635126786938e-01 -2.734618433253006575e-01 -3.526889032580766137e-01
1.995988526417624698e-02 -8.271527245200958056e-01 -4.400231831411475225e-01
2.907705515641918759e-02 -8.337565288746436876e-01 -4.531611505118381955e-01
9.809554298722253374e-03 -8.207081924345351887e-01 -4.433119030756688672e-01
6.764108943465224622e-02 -8.360138889170625198e-01 -4.734860530915840360e-01
5.987219219189071628e-02 -8.363018291372532609e-01 -4.693724733414868511e-01
7.753731991959059155e-02 -8.349307876308017518e-01 -4.787444027332467544e-01
8.424011360213354283e-02 -8.350741610144356564e-01 -4.822834448444157096e-01
3.747081052238909749e-02 -8.353042124714851191e-01 -4.575579431310003442e-01
5.095520933652605139e-02 -8.362387823198821346e-01 -4.646610772546296286e-01
2.270015341326592218e-03 -8.066382294010128184e-01 -4.396875790161211550e-01
5.711517010526245830e-04 -7.993086748385076490e-01 -4.389775311929307033e-01
-2.043975165155226259e-03 -7.845383778108031558e-01 -4.379739238354239950e-01
-3.252000768830892730e-03 -7.695679673829297629e-01 -4.377191599361605068e-01
-3.100533299841348733e-03 -7.619752647019666369e-01 -4.379938375081147695e-01
-2.543029270352020754e-03 -7.543248672674833788e-01 -4.384846018752557306e-01
-1.634648702131855091e-03 -7.466245793952360765e-01 -4.391620985293421264e-01
1.018265346591798737e-01 -7.094353199480387673e-01 -4.947990768129162942e-01
1.093574757579529044e-01 -7.118070637873631368e-01 -4.987187118966879829e-01
1.162708907326555768e-01 -7.147148487570078590e-01 -5.025539993670038452e-01
1.234143728235714554e-01 -7.174489293275309043e-01 -5.060037761101504605e-01
8.203180264484202788e-02 -7.070023496979717104e-01 -4.843990657810113842e-01
8.872265447733460042e-02 -7.070483568088564708e-01 -4.879342918538782103e-01
9.551402456512528283e-02 -7.079199026703153486e-01 -4.915014855080182543e-01
-6.163179738118827744e-02 -3.236034388924652894e-01 -4.182941205127150841e-01
-5.875265944964151721e-02 -3.190604997697235046e-01 -4.199323169509637244e-01
-5.282464452271205813e-02 -3.128349802814453517e-01 -4.232251059515783620e-01
-4.940652423917681058e-02 -3.067225880726450749e-01 -4.251884070451407149e-01
-4.746391434863182768e-02 -3.019453906993852521e-01 -4.263376124395227840e-01
-4.415596144187496075e-02 -2.908336580473307453e-01 -4.283708312163752030e-01
-5.463355397006862402e-02 -3.148457344623091236e-01 -4.271614394946872117e-01
-1.962765939849530072e-01 -3.677229916995531367e-01 -3.369350148623547203e-01
-1.642307997736525693e-01 -3.839598703777028499e-01 -3.497787921081897400e-01
-1.557942375337192931e-01 -3.817719842030390387e-01 -3.574846957939912806e-01
-1.454618369837771819e-01 -3.741582563542882878e-01 -3.642020393588394911e-01
-2.029996493480366593e-01 -3.382877538980940124e-01 -3.365381960302927244e-01
-1.994439848054387343e-01 -3.165716295916089495e-01 -3.391355159723637436e-01
-1.775423182192552018e-01 -2.478270325410864283e-01 -3.504843071256792397e-01
-1.727837662628198823e-01 -2.449867572223649870e-01 -3.569560158430093444e-01
-1.721407865201088350e-01 -2.410594217613857004e-01 -3.577569717706354790e-01
-1.658090514575902841e-01 -2.292251467624751016e-01 -3.568506049393628254e-01
-1.598318183276141724e-01 -2.245460520385430259e-01 -3.572586383581980440e-01
-1.552859296980777515e-01 -2.254498222726330214e-01 -3.670656086148330055e-01
-1.429276801767818683e-01 -2.218600820967045195e-01 -3.714215116440472975e-01
-1.172002581135747484e-01 -1.982734275741338537e-01 -3.888352999666639387e-01
-9.749256954092284932e-02 -1.942079726596749600e-01 -3.979977931098412358e-01
1.220142862973413178e-01 -8.288443057892740384e-01 -4.981642499467287544e-01
1.308565959553254221e-01 -8.259664889807030175e-01 -5.029115598888674876e-01
1.396623719881757986e-01 -8.227892873482868241e-01 -5.076472342267781546e-01
1.577208358306103064e-01 -8.186147258564907547e-01 -5.168615975504161630e-01
1.606042974380823551e-01 -8.163328246467171923e-01 -5.188814457083641418e-01
1.705794243113641362e-01 -8.095291995537973184e-01 -5.200838775400786762e-01
1.749034009722916505e-01 -8.004777173349069130e-01 -5.263586947214603518e-01
1.853157044598424952e-01 -7.996460748173118693e-01 -5.323702201714414217e-01
4.592922542469610181e-03 -7.274817285705366121e-01 -4.344559002243815748e-01
1.793396641058504770e-02 -6.824048369669222236e-01 -4.372768585372722727e-01
2.005357293708344424e-02 -6.833506534660926945e-01 -4.413182905003418810e-01
6.497023512919089527e-02 -6.916034285752190591e-01 -4.721047604016487820e-01
5.741044911072323148e-02 -6.827329980499179385e-01 -4.635013233215574124e-01
6.231424432618872661e-02 -6.869142744186609306e-01 -4.677946124094573555e-01
1.700672018075366776e-01 -7.480130689868691451e-01 -5.223862530108144275e-01
1.429499074681319093e-01 -7.246523086593562590e-01 -5.034118424514874013e-01
1.933327595263368559e-01 -7.968539570934142224e-01 -5.366791505861026046e-01
1.992130309428407353e-01 -7.921956489377096622e-01 -5.399065334244319558e-01
2.046757338565837747e-01 -7.862265324771376962e-01 -5.429468125797586309e-01
2.096656780831608891e-01 -7.811724806668638443e-01 -5.461178342981038991e-01
2.096344714822380717e-01 -7.773117704067982192e-01 -5.457962286779916017e-01
2.076411644755256081e-01 -7.738463674854907381e-01 -5.438833896490665731e-01
1.962253045274561236e-01 -7.642024514036207528e-01 -5.357904412393936777e-01
-3.546261723246650621e-02 -2.596923239279224638e-01 -4.239576581526710020e-01
-4.318414788222037226e-02 -2.304549734974370157e-01 -4.219437172439811645e-01
-4.581277745947236191e-02 -2.267463609885097264e-01 -4.217104961872006896e-01
-5.227179430901031376e-02 -2.188377338801764938e-01 -4.197325682127731050e-01
-8.186065815591110628e-02 -1.941823867963126948e-01 -4.058387013298649926e-01
-7.489787349298181185e-02 -1.912026272940042793e-01 -4.071249867814575873e-01
-6.124104184412380858e-02 -2.072337474553147263e-01 -4.148438580178868684e-01
-6.512603703315346382e-02 -2.013428914744743448e-01 -4.125219186009311811e-01
-1.848263297863075860e-01 -3.766447438327332198e-01 -3.382951626891079200e-01
-1.852445851949661160e-01 -3.721959992913187465e-01 -3.361110672327314308e-01
-1.698718317635353747e-01 -3.863699742782861213e-01 -3.489510389162234216e-01
-1.981754748192705029e-01 -3.282852491642067605e-01 -3.355897931686555036e-01
-1.910378110561679610e-01 -3.085941215202345211e-01 -3.333052721394927365e-01
-1.957984426003605005e-01 -3.052265892308823059e-01 -3.375677826636094836e-01
-1.736933063560199830e-01 -2.452674551288779037e-01 -3.516158827506755680e-01
-1.716079497088430217e-01 -2.416533053373774165e-01 -3.537791267015906183e-01
-1.699575580048399148e-01 -2.371275920284194594e-01 -3.547674359302122604e-01
-1.527044521444038128e-01 -2.234165382817628054e-01 -3.616715737822752130e-01
-1.466327870217863372e-01 -2.225857708720859474e-01 -3.640563699847858548e-01
-1.439092417513979649e-01 -2.191709979679890286e-01 -3.639953757154619218e-01
-1.347492683891300391e-01 -2.076126771948083316e-01 -3.720083711430971496e-01
-1.292047449876659315e-01 -1.992617219584349175e-01 -3.717249538879686122e-01
-1.253162329783425455e-01 -1.966103442458911332e-01 -3.754741785167117207e-01
-1.170411896705466220e-01 -1.919106593421089357e-01 -3.796508076994093428e-01
-1.158523743901904851e-01 -1.946480439290608488e-01 -3.853337714319708951e-01
-9.926022694891133147e-02 -1.895277141860024217e-01 -3.930267954917673889e-01
1.139851975430200698e-01 -8.307841474790105263e-01 -4.896265555554487059e-01
1.188644182372452507e-01 -8.296759693793872570e-01 -4.922338407349910461e-01
1.252407029065194799e-01 -8.273338229718005810e-01 -4.956640189209766123e-01
1.316351027516683148e-01 -8.239916170150111130e-01 -4.948851561828375156e-01
1.356986643395939052e-01 -8.238007106944092994e-01 -5.012820677953966353e-01
1.447130854517488241e-01 -8.210639556789232074e-01 -5.057434775679399142e-01
1.560520632510792038e-01 -8.193765633474582311e-01 -5.121531240233316851e-01
1.657896392550659570e-01 -8.169887494074078438e-01 -5.173610610235723772e-01
1.679703069341945687e-01 -8.136857850382980262e-01 -5.185983019094930757e-01
1.766452100867009212e-01 -8.049252456334600181e-01 -5.222637461123171843e-01
1.803453264450189941e-01 -8.003948479959936968e-01 -5.254364533163224937e-01
1.879840976310216960e-01 -7.995205789759455284e-01 -5.293346902606181903e-01
6.020992380519035736e-03 -7.206919822562052325e-01 -4.353847356789584122e-01
8.110819687563788905e-03 -7.078466073913256551e-01 -4.368185599472941272e-01
6.645839392528067602e-02 -6.894066062666363015e-01 -4.681304477990551605e-01
1.568066773825326776e-01 -7.378612770765805573e-01 -5.093295194942156767e-01
1.498043592995136064e-01 -7.293480815817228180e-01 -5.073703545076321264e-01
1.618020453133230396e-01 -7.429356645649989321e-01 -5.141006973103958710e-01
1.934605272402566412e-01 -7.971518450708846570e-01 -5.324947960590863394e-01
1.996794173579561904e-01 -7.933170512978173772e-01 -5.358800447797015254e-01
2.027755693914231605e-01 -7.899984340930968907e-01 -5.376015600706848252e-01
2.049787676190670815e-01 -7.857092483536914918e-01 -5.388759887120728731e-01
2.077214897403588945e-01 -7.814827023700124942e-01 -5.417492338326680423e-01
2.016318361562551842e-01 -7.749076718075850190e-01 -5.353393500659638926e-01
2.002519914485691999e-01 -7.712906631436692306e-01 -5.354175032644165055e-01
1.954482225632785397e-01 -7.682477026322651614e-01 -5.314218788574993635e-01
1.887006361383086750e-01 -7.615907490314708372e-01 -5.292011589990230913e-01
3.117329242459181138e-02 -6.779484628454812700e-01 -4.474603913473734207e-01
3.709390406785491312e-02 -6.766609999477924964e-01 -4.500748340784980761e-01
5.039754994734239879e-02 -6.703793635717736343e-01 -4.500478446957128509e-01
5.175974526186034874e-02 -6.745287340223019568e-01 -4.541382560219109910e-01
-3.556965538898985979e-02 -2.521833692238005797e-01 -4.228807661568813603e-01
-4.563118690121691079e-02 -2.188589302073565002e-01 -4.176002711452022065e-01
-7.106313981232319221e-02 -1.852486459945560937e-01 -4.073055757045518366e-01
-6.925802315972696965e-02 -1.950838687062653454e-01 -4.102280542627792514e-01
-8.358197540731505948e-02 -1.884243787522914548e-01 -4.009956016472746021e-01
-1.422907152682819087e-01 -3.727479666611616671e-01 -3.659142640487313414e-01
-1.381444714312832223e-01 -3.726689022330531009e-01 -3.681077603492885486e-01
-1.926527658898173900e-01 -3.011252155169417688e-01 -3.359372645150612291e-01
-1.946693409585695811e-01 -2.974473605311928059e-01 -3.395926960009996165e-01
-1.890991282154680930e-01 -2.891475511444520086e-01 -3.411092013738722950e-01
1.235001209064305050e-01 -7.178001119946300079e-01 -4.975516758310001841e-01
1.306550104563593551e-01 -7.205090891013271603e-01 -5.012639072094319248e-01
-1.355548529988993001e-01 -3.731635578732032110e-01 -3.694638067009022864e-01
-1.286296454220594576e-01 -3.716280806067240872e-01 -3.721361579643416850e-01
-1.274158356089911681e-01 -3.711431102728340869e-01 -3.738174196078837275e-01
-1.229376223011673236e-01 -3.669697166734390281e-01 -3.762913243293021237e-01
-1.168018674005519703e-01 -3.620625149598296622e-01 -3.796601210487737244e-01
-1.881250867757529033e-01 -2.813524904407770921e-01 -3.440315115215877850e-01
-1.872006452742385196e-01 -2.783451084049853308e-01 -3.445972058609402255e-01
-1.832290240024015415e-01 -2.655139157179599030e-01 -3.470252763211240654e-01
-1.824303844920178719e-01 -2.578292348647711063e-01 -3.476443700191122477e-01
-1.794912831610697701e-01 -2.498401343486253146e-01 -3.494025936707099156e-01
3.405313160201225986e-02 -8.331820461944707823e-01 -4.473175280267280285e-01
2.718207767059553637e-02 -8.316555054354392018e-01 -4.437250072049817029e-01
1.353036666166290702e-02 -8.205075229621193733e-01 -4.367952372949165385e-01
9.285034224567445538e-03 -8.135401795199971309e-01 -4.347299858807162076e-01
4.073824920906735092e-02 -8.331809864057667658e-01 -4.508509297581461683e-01
5.421771290036402763e-02 -8.340749853976584527e-01 -4.579524953904562934e-01
6.087257301589284186e-02 -8.338251836046234322e-01 -4.614762806210629953e-01
6.739059552918495732e-02 -8.324495094705620657e-01 -4.649566002408090371e-01
7.393714960778846601e-02 -8.313093410494064583e-01 -4.684459634146164730e-01
8.728971669061934280e-02 -8.311601432943099832e-01 -4.755071984948324171e-01
1.000982641756566066e-01 -8.310663357736959300e-01 -4.822794758315280261e-01
1.073425303081867316e-01 -8.311350640170477311e-01 -4.861066229607670652e-01
9.390953171336743899e-02 -8.306221681401207979e-01 -4.790198474965651765e-01
6.551585327680783943e-03 -8.063578107892274138e-01 -4.334693421325173102e-01
4.977966111224044199e-03 -7.990104443689909353e-01 -4.328259479823454714e-01
3.633893911017302414e-03 -7.878449375543581379e-01 -4.324017481172645616e-01
2.087892558654644293e-03 -7.767081484520242940e-01 -4.318700838296532507e-01
8.686144981678578514e-04 -7.693104392318531604e-01 -4.314152647620895231e-01
1.558437649332028441e-04 -7.618406457187021363e-01 -4.312300044878256688e-01
3.793159497696430016e-04 -7.542377532150849051e-01 -4.315430008659999483e-01
2.090993913065317122e-03 -7.429328127879321064e-01 -4.327374715210546841e-01
1.057354101192541779e-01 -7.090394939127995233e-01 -4.883868128979676482e-01
1.129192709927422239e-01 -7.121036958814223050e-01 -4.921052515528812621e-01
7.799883685206518424e-02 -6.998228873530584204e-01 -4.739630763525882196e-01
8.492774845142614382e-02 -7.018251400094488446e-01 -4.775739837447438574e-01
9.162798906130939502e-02 -7.034450487183607770e-01 -4.800409153134660989e-01
9.885019660201239955e-02 -7.063617224967930763e-01 -4.848163171158508811e-01
-6.144573420866071556e-02 -3.228957013127103925e-01 -4.099221839509731846e-01
-5.379277825328419860e-02 -3.152459803346144840e-01 -4.141631850274338777e-01
-4.894539329792584048e-02 -3.070376530351259792e-01 -4.155879757009490749e-01
-4.429112243239814728e-02 -2.987524735797917885e-01 -4.196079930695819638e-01
-4.078687403052529137e-02 -2.906830097623464559e-01 -4.216669813742384698e-01
-3.864714012702115398e-02 -2.845325398582207455e-01 -4.229555758556575173e-01
-3.666055775759140267e-02 -2.749539059024796450e-01 -4.242510957479728173e-01
-3.610186250902110150e-02 -2.673033390566634249e-01 -4.247424940685037287e-01
-1.841119531630032724e-01 -2.654505245752658005e-01 -3.514430226843826000e-01
8.370025335380104625e-02 -7.043891081118464070e-01 -4.805656561054452713e-01
-1.043858386090284612e-01 -3.546045439039809399e-01 -3.864136976351600361e-01
-9.190660190967971099e-02 -3.472762760874785193e-01 -3.931973577152158006e-01
-7.951713805602476925e-02 -3.392104395576532871e-01 -3.999524747312572237e-01
-6.738873978735955561e-02 -3.289984245577740607e-01 -4.066246193235064088e-01
-8.159939890072843982e-02 -3.416917939282181904e-01 -4.045282029237194377e-01
-1.777123552776300186e-01 -3.781083546891869096e-01 -3.392141597298851674e-01
-1.889492301946825159e-01 -3.594254713717346950e-01 -3.325029553727971710e-01
-1.942722861331629969e-01 -3.561592385392354232e-01 -3.335596717732605132e-01
-1.740556904518529291e-01 -3.831736279807849699e-01 -3.438868480250796278e-01
-1.588765486049192321e-01 -3.812651594989094894e-01 -3.509716218848266678e-01
-1.532994522526687220e-01 -3.775477750863250326e-01 -3.516680777543466085e-01
-1.464312849151490625e-01 -3.730957824759675301e-01 -3.556989185882726279e-01
-1.406712353950540506e-01 -3.697945338444739161e-01 -3.620819628837882997e-01
-1.906962429150818039e-01 -3.483389679024737617e-01 -3.313030595193892647e-01
-1.948420614660326677e-01 -3.411775006332632976e-01 -3.325756408472121950e-01
-1.923139026848667554e-01 -3.200686787618895468e-01 -3.339804245123369486e-01
-1.925235402683894148e-01 -3.157098554900524823e-01 -3.344597301412108314e-01
-1.752306649171503361e-01 -2.456128649531780506e-01 -3.475186212676484865e-01
-1.732387955504244292e-01 -2.417083177116231274e-01 -3.444273123810334680e-01
-1.697550239395070881e-01 -2.325161208849599592e-01 -3.465042563406401932e-01
-1.672730211528167810e-01 -2.293631056031069926e-01 -3.515167194760022706e-01
-1.495734344204274757e-01 -2.230470737278065496e-01 -3.613767275977742832e-01
-1.390566965270261801e-01 -2.067268128240636327e-01 -3.591464614215159612e-01
-1.234228180922592871e-01 -1.929824790716107297e-01 -3.720061850507863643e-01
-1.109477514546581139e-01 -1.899895574348024474e-01 -3.829206968181094739e-01
-9.578470277885701989e-02 -1.851679726913950108e-01 -3.893549982252961783e-01
1.079168691922836321e-01 -8.287081483996262543e-01 -4.803551262381187681e-01
1.467439618421950143e-01 -8.176520166050221805e-01 -5.010156223355524130e-01
1.624036920919403326e-01 -8.158805966764566264e-01 -5.113555962361137075e-01
1.671640108240038669e-01 -8.139627992538827073e-01 -5.139699475460439704e-01
1.703019735932356504e-01 -8.121120604466430803e-01 -5.156267777817024056e-01
1.749124999352523468e-01 -8.085636915351749332e-01 -5.180865989039987740e-01
1.810481123643916390e-01 -8.037797739734573454e-01 -5.213746948124814429e-01
1.868506300027649170e-01 -7.998083080346078955e-01 -5.246888370885198771e-01
1.918440087283455053e-01 -7.963227927880288659e-01 -5.274173969875302070e-01
7.113027198534765949e-03 -7.203207209160653601e-01 -4.317271901469300621e-01
8.308695421852668739e-03 -7.069833400008115332e-01 -4.305789330454633523e-01
9.251421073436766340e-03 -6.997718916093847996e-01 -4.307315268036348010e-01
1.306882612155613188e-02 -6.865228148591667745e-01 -4.311274765949182908e-01
6.958859004901304934e-02 -6.841566208837099872e-01 -4.613792821197055249e-01
1.726247082302136415e-01 -7.536172389051963849e-01 -5.181771401739470040e-01
1.645122931163616742e-01 -7.474547051077066184e-01 -5.123246465287781826e-01
1.280972305637535502e-01 -7.235964529939420409e-01 -4.885438065280827691e-01
1.333964289346314946e-01 -7.253181863747232283e-01 -4.910300065508657608e-01
1.989390539551409431e-01 -7.904849745794719773e-01 -5.321696917550053918e-01
1.963819760904342848e-01 -7.869192572465700808e-01 -5.282947239426141195e-01
2.024929357108063432e-01 -7.804806156985603094e-01 -5.352105734594077013e-01
1.882158135807116828e-01 -7.655920077150730751e-01 -5.250491207096583679e-01
1.630439289808365000e-02 -6.791568543255155355e-01 -4.312992954167537696e-01
6.622379717248436104e-02 -6.794242012437776701e-01 -4.588382245815641469e-01
6.288747719138616799e-02 -6.756028678535125342e-01 -4.559863436876506193e-01
-3.823075302848076562e-02 -2.355931138219637677e-01 -4.201858478480032244e-01
-5.256716762848735736e-02 -2.012390763892020484e-01 -4.117700659731436952e-01
-4.932402528406502895e-02 -2.073241550237922837e-01 -4.132583120404559329e-01
-5.857856332403967026e-02 -1.953792855426205455e-01 -4.106969862592746434e-01
-6.529451612810190098e-02 -1.863785406063613315e-01 -4.088395735714199786e-01
-9.117787929326305607e-02 -1.844826359706408236e-01 -3.925870581598064346e-01
-8.879742821302148703e-02 -1.869727048658060276e-01 -3.968272070148357034e-01
-8.506771460304406174e-02 -1.835779091329153012e-01 -3.967637656167036231e-01
-8.227824638525139955e-02 -1.793840914884588245e-01 -3.986449360832666211e-01
-8.888897941642319445e-02 -1.766416830443339747e-01 -3.925590745638540269e-01
-9.090125498644620328e-02 -1.727420511106294576e-01 -3.939582373795835757e-01
-9.622214239764263766e-02 -1.700567927836297843e-01 -3.903168186011331531e-01
-9.366341936181386829e-02 -1.658649920946714262e-01 -3.928702734424147081e-01
-8.771023441412208188e-02 -1.649828898853873127e-01 -3.969556917481276703e-01
-8.265006176827312256e-02 -1.642755672641200981e-01 -3.993300185449576434e-01
-7.499567111155651389e-02 -1.669546372058532957e-01 -4.037704254404874682e-01
-6.408768508176802825e-02 -1.786797530612941887e-01 -4.085384315098756769e-01
-6.668962309927424503e-02 -1.733451985781919169e-01 -4.079781256930525291e-01
-6.701120001053893771e-02 -1.696352574100663813e-01 -4.071321633017554453e-01
-7.906232638754238928e-02 -1.864064476055698194e-01 -4.025264388621538902e-01
-7.825711714438950140e-02 -1.825472483851271199e-01 -4.019940490931162014e-01
-7.505902888566694242e-02 -1.782641165597336486e-01 -4.048997472073951331e-01
-7.232782036428807293e-02 -1.740805501543649658e-01 -4.066975019801652991e-01
-8.947897470619238514e-02 -1.689658027651368133e-01 -3.973197509505015379e-01
-8.478768082325062461e-02 -1.682763719785637380e-01 -4.003919298404912674e-01
-8.107360100508310963e-02 -1.715314660858043572e-01 -4.023306488420456128e-01
-7.429625608006461268e-02 -1.705868942711434022e-01 -4.054387679342739137e-01
-1.738701450116250102e-01 -3.706564565395058519e-01 -3.345214075084710359e-01
-1.838945138871843077e-01 -3.644070647042657041e-01 -3.326773553435499187e-01
-1.647126899818723844e-01 -3.769836632987028646e-01 -3.411375225570573710e-01
-1.320917338142953978e-01 -3.683992330724419340e-01 -3.616833226114525845e-01
-1.884410918601402973e-01 -3.329746748907330134e-01 -3.303391584864678321e-01
-1.849182364413031743e-01 -3.042256601038191288e-01 -3.292243498514688671e-01
-1.859539945153796947e-01 -3.004945583137643705e-01 -3.311728411311356535e-01
-1.849893709293831678e-01 -2.919650978921158879e-01 -3.360340595807496111e-01
-1.825543127045758940e-01 -2.885451222664506266e-01 -3.360990283152010538e-01
-1.742258630810606390e-01 -2.457029393168922715e-01 -3.437487587862585459e-01
-1.690082622812802970e-01 -2.298673969195960953e-01 -3.439324234289387605e-01
-1.634746960613953082e-01 -2.245722716602171765e-01 -3.500273032134574858e-01
-1.571440161361667420e-01 -2.216569967988864798e-01 -3.534480680669080388e-01
-1.521892938266403705e-01 -2.211697251727233471e-01 -3.560793436987677030e-01
-1.470158639319709137e-01 -2.197815262046079188e-01 -3.580589058816918135e-01
-1.182674011994294533e-01 -1.908924896973955010e-01 -3.747846182404261373e-01
-1.023071777477938399e-01 -1.862288983136547449e-01 -3.824353258903929187e-01
-9.810303554865922038e-02 -1.849140371045326081e-01 -3.855956030227820075e-01
-1.025659600733020010e-01 -1.707739761419729274e-01 -3.835991999030594624e-01
-9.354564159924420863e-02 -1.746782481479879634e-01 -3.886886548861710478e-01
-1.066898255445522664e-01 -1.678893833889647802e-01 -3.814934976749839723e-01
-1.039382846329483107e-01 -1.644225950235654599e-01 -3.830366690503672622e-01
